0.5400 0.2566 -0.0262 0 0 10 0
0.5580 0.2563 -0.0256 0 0 10 0
0.5560 0.2579 -0.0258 0 0 10 0
0.5560 0.2579 -0.0258 0 0 10 0
0.5240 0.2582 -0.0269 0 0 10 0
0.5180 0.2576 -0.0217 0 0 10 0
0.5400 0.2570 -0.0208 0 0 10 0
0.5400 0.2570 -0.0208 0 0 10 0
0.5400 0.2571 -0.0190 0 0 10 0
0.5400 0.2572 -0.0197 0 0 10 0
0.5280 0.2576 -0.0212 0 0 10 0
0.5360 0.2581 -0.0252 0 0 10 0
0.5500 0.2582 -0.0244 0 0 10 0
0.5480 0.2578 -0.0238 0 0 10 0
0.5480 0.2578 -0.0238 0 0 10 0
0.5440 0.2566 -0.0232 0 0 10 0
0.5540 0.2558 -0.0250 0 0 10 0
0.5420 0.2551 -0.0257 0 0 10 0
0.5360 0.2547 -0.0251 0 0 10 0
0.5420 0.2543 -0.0246 0 0 10 0
0.5380 0.2540 -0.0274 0 0 10 0
0.5380 0.2540 -0.0274 0 0 10 0
0.5280 0.2535 -0.0271 0 0 10 0
0.5420 0.2531 -0.0194 0 0 10 0
0.5460 0.2524 -0.0207 0 0 10 0
0.5460 0.2524 -0.0207 0 0 10 0
0.5300 0.2517 -0.0257 0 0 10 0
0.5500 0.2513 -0.0248 0 0 10 0
0.5380 0.2512 -0.0251 0 0 10 0
0.5440 0.2507 -0.0251 0 0 10 0
0.5280 0.2504 -0.0240 0 0 10 0
0.5260 0.2500 -0.0229 0 0 10 0
0.5260 0.2500 -0.0229 0 0 10 0
0.5340 0.2482 -0.0241 0 0 10 0
0.5500 0.2481 -0.0236 0 0 10 0
0.5420 0.2481 -0.0238 0 0 10 0
0.5500 0.2481 -0.0237 0 0 10 0
0.5380 0.2482 -0.0244 0 0 10 0
0.5380 0.2482 -0.0244 0 0 10 0
0.5340 0.2478 -0.0261 0 0 10 0
0.5520 0.2471 -0.0246 0 0 10 0
0.5440 0.2464 -0.0253 0 0 10 0
0.5220 0.2447 -0.0266 0 0 10 0
0.5220 0.2447 -0.0266 0 0 10 0
0.5560 0.2443 -0.0252 0 0 10 0
0.5360 0.2441 -0.0249 0 0 10 0
0.5280 0.2442 -0.0241 0 0 10 0
0.5280 0.2442 -0.0241 0 0 10 0
0.5260 0.2432 -0.0212 0 0 10 0
0.5300 0.2431 -0.0201 0 0 10 0
0.5400 0.2431 -0.0196 0 0 10 0
0.5220 0.2432 -0.0178 0 0 10 0
0.5320 0.2431 -0.0181 0 0 10 0
0.5320 0.2431 -0.0181 0 0 10 0
0.5200 0.2425 -0.0177 0 0 10 0
0.5380 0.2416 -0.0177 0 0 10 0
0.5200 0.2411 -0.0169 0 0 10 0
0.5400 0.2404 -0.0174 0 0 10 0
0.5400 0.2404 -0.0174 0 0 10 0
0.5320 0.2400 -0.0189 0 0 10 0
0.5460 0.2401 -0.0170 0 0 10 0
0.5360 0.2397 -0.0173 0 0 10 0
0.5360 0.2391 -0.0171 0 0 10 0
0.5260 0.2385 -0.0166 0 0 10 0
0.5260 0.2385 -0.0166 0 0 10 0
0.5240 0.2376 -0.0159 0 0 10 0
0.5620 0.2371 -0.0163 0 0 10 0
0.5280 0.2369 -0.0158 0 0 10 0
0.5280 0.2369 -0.0158 0 0 10 0
0.5520 0.2364 -0.0153 0 0 10 0
0.5600 0.2360 -0.0151 0 0 10 0
0.5500 0.2350 -0.0140 0 0 10 0
0.5500 0.2350 -0.0140 0 0 10 0
0.5540 0.2339 -0.0125 0 0 10 0
0.5540 0.2339 -0.0125 0 0 10 0
0.5560 0.2329 -0.0127 0 0 10 0
0.5660 0.2322 -0.0128 0 0 10 0
0.5680 0.2321 -0.0123 0 0 10 0
0.5600 0.2320 -0.0082 0 0 10 0
0.5600 0.2320 -0.0082 0 0 10 0
0.5500 0.2317 -0.0081 0 0 10 0
0.5480 0.2315 -0.0079 0 0 10 0
0.5600 0.2312 -0.0090 0 0 10 0
0.5600 0.2312 -0.0090 0 0 10 0
0.5580 0.2300 -0.0075 0 0 10 0
0.5580 0.2300 -0.0075 0 0 10 0
0.5260 0.2295 -0.0080 0 0 10 0
0.5640 0.2296 -0.0081 0 0 10 0
0.5540 0.2294 -0.0079 0 0 10 0
0.5520 0.2293 -0.0094 0 0 10 0
0.5520 0.2288 -0.0087 0 0 10 0
0.5540 0.2283 -0.0080 0 0 10 0
0.5540 0.2283 -0.0080 0 0 10 0
0.5440 0.2282 -0.0076 0 0 10 0
0.5560 0.2278 -0.0073 0 0 10 0
0.5580 0.2275 -0.0068 0 0 10 0
0.5580 0.2275 -0.0068 0 0 10 0
0.5460 0.2273 -0.0067 0 0 10 0
0.5420 0.2267 -0.0083 0 0 10 0
0.5500 0.2260 -0.0082 0 0 10 0
0.5540 0.2256 -0.0068 0 0 10 0
0.5780 0.2255 -0.0067 0 0 10 0
0.5460 0.2257 -0.0082 0 0 10 0
0.5560 0.2257 -0.0086 0 0 10 0
0.5640 0.2254 -0.0076 0 0 10 0
0.5640 0.2244 -0.0090 0 0 10 0
0.5360 0.2244 -0.0090 0 0 10 0
0.5340 0.2241 -0.0092 0 0 10 0
0.5560 0.2239 -0.0094 0 0 10 0
0.5420 0.2235 -0.0098 0 0 10 0
0.5540 0.2230 -0.0102 0 0 10 0
0.5540 0.2230 -0.0102 0 0 10 0
0.5700 0.2219 -0.0106 0 0 10 0
0.5700 0.2219 -0.0106 0 0 10 0
0.5700 0.2218 -0.0110 0 0 10 0
0.5420 0.2216 -0.0115 0 0 10 0
0.5400 0.2214 -0.0115 0 0 10 0
0.5580 0.2210 -0.0093 0 0 10 0
0.5580 0.2210 -0.0093 0 0 10 0
0.5620 0.2206 -0.0090 0 0 10 0
0.5400 0.2200 -0.0103 0 0 10 0
0.5420 0.2191 -0.0099 0 0 10 0
0.5380 0.2186 -0.0092 0 0 10 0
0.5400 0.2180 -0.0097 0 0 10 0
0.5400 0.2180 -0.0097 0 0 10 0
0.5500 0.2175 -0.0090 0 0 10 0
0.5640 0.2168 -0.0086 0 0 10 0
0.5540 0.2161 -0.0080 0 0 10 0
0.5720 0.2157 -0.0076 0 0 10 0
0.5580 0.2155 -0.0060 0 0 10 0
0.5580 0.2155 -0.0060 0 0 10 0
0.5600 0.2152 -0.0057 0 0 10 0
0.5460 0.2145 -0.0060 0 0 10 0
0.5640 0.2141 -0.0060 0 0 10 0
0.5580 0.2136 -0.0034 0 0 10 0
0.5580 0.2133 -0.0039 0 0 10 0
0.5560 0.2133 -0.0039 0 0 10 0
0.5660 0.2133 -0.0051 0 0 10 0
0.5820 0.2132 -0.0041 0 0 10 0
0.5620 0.2125 -0.0047 0 0 10 0
0.5620 0.2125 -0.0047 0 0 10 0
0.5640 0.2118 -0.0041 0 0 10 0
0.5420 0.2115 -0.0044 0 0 10 0
0.5420 0.2115 -0.0031 0 0 10 0
0.5460 0.2112 -0.0044 0 0 10 0
0.5720 0.2110 -0.0033 0 0 10 0
0.5680 0.2102 -0.0027 0 0 10 0
0.5700 0.2097 -0.0027 0 0 10 0
0.5640 0.2088 -0.0029 0 0 10 0
0.5580 0.2086 -0.0034 0 0 10 0
0.5580 0.2086 -0.0034 0 0 10 0
0.5440 0.2080 -0.0025 0 0 10 0
0.5620 0.2075 -0.0029 0 0 10 0
0.5740 0.2071 -0.0031 0 0 10 0
0.5660 0.2068 -0.0034 0 0 10 0
0.5660 0.2068 -0.0034 0 0 10 0
0.5540 0.2054 -0.0022 0 0 10 0
0.5540 0.2054 -0.0022 0 0 10 0
0.5720 0.2051 -0.0021 0 0 10 0
0.5620 0.2046 -0.0009 0 0 10 0
0.5600 0.2044 -0.0007 0 0 10 0
0.5620 0.2043 -0.0030 0 0 10 0
0.5620 0.2043 -0.0030 0 0 10 0
0.5460 0.2043 -0.0022 0 0 10 0
0.5740 0.2048 -0.0006 0 0 10 0
0.5640 0.2050 -0.0000 0 0 10 0
0.5440 0.2044 0.0005 0 0 10 0
0.5640 0.2032 0.0015 0 0 10 0
0.5640 0.2032 0.0015 0 0 10 0
0.5620 0.2025 0.0024 0 0 10 0
0.5560 0.2019 0.0029 0 0 10 0
0.5640 0.2017 0.0027 0 0 10 0
0.5640 0.2017 0.0027 0 0 10 0
0.5520 0.2013 0.0006 0 0 10 0
0.5520 0.2013 0.0006 0 0 10 0
0.5620 0.2005 0.0010 0 0 10 0
0.5580 0.1993 0.0057 0 0 10 0
0.5660 0.1986 0.0052 0 0 10 0
0.5360 0.1979 0.0039 0 0 10 0
0.5360 0.1979 0.0039 0 0 10 0
0.5480 0.1971 0.0033 0 0 10 0
0.5300 0.1966 0.0030 0 0 10 0
0.5580 0.1963 0.0023 0 0 10 0
0.5600 0.1958 0.0026 0 0 10 0
0.5660 0.1957 0.0028 0 0 10 0
0.5660 0.1958 0.0006 0 0 10 0
0.5640 0.1958 0.0012 0 0 10 0
0.5700 0.1950 0.0014 0 0 10 0
0.5660 0.1941 0.0019 0 0 10 0
0.5480 0.1921 -0.0007 0 0 10 0
0.5480 0.1921 -0.0007 0 0 10 0
0.5740 0.1921 -0.0011 0 0 10 0
0.5620 0.1926 -0.0005 0 0 10 0
0.5760 0.1928 -0.0004 0 0 10 0
0.5780 0.1926 -0.0016 0 0 10 0
0.5780 0.1926 -0.0016 0 0 10 0
0.5600 0.1922 -0.0021 0 0 10 0
0.5520 0.1914 -0.0001 0 0 10 0
0.5620 0.1904 -0.0005 0 0 10 0
0.5680 0.1897 -0.0008 0 0 10 0
0.5860 0.1896 -0.0013 0 0 10 0
0.5540 0.1897 -0.0010 0 0 10 0
0.5540 0.1897 -0.0010 0 0 10 0
0.5660 0.1896 -0.0008 0 0 10 0
0.5600 0.1890 -0.0008 0 0 10 0
0.5560 0.1885 -0.0010 0 0 10 0
0.5680 0.1878 -0.0020 0 0 10 0
0.5620 0.1872 -0.0026 0 0 10 0
0.5800 0.1865 -0.0026 0 0 10 0
0.5680 0.1859 -0.0011 0 0 10 0
0.5680 0.1859 -0.0011 0 0 10 0
0.5780 0.1863 -0.0030 0 0 10 0
0.5800 0.1863 -0.0036 0 0 10 0
0.5600 0.1862 -0.0027 0 0 10 0
0.5440 0.1854 -0.0030 0 0 10 0
0.5440 0.1854 -0.0030 0 0 10 0
0.5640 0.1846 -0.0018 0 0 10 0
0.5640 0.1846 -0.0018 0 0 10 0
0.5620 0.1840 -0.0031 0 0 10 0
0.5660 0.1841 -0.0026 0 0 10 0
0.5900 0.1842 -0.0011 0 0 10 0
0.5900 0.1842 -0.0011 0 0 10 0
0.5560 0.1833 -0.0012 0 0 10 0
0.5460 0.1833 -0.0012 0 0 10 0
0.5580 0.1824 -0.0012 0 0 10 0
0.5580 0.1824 -0.0012 0 0 10 0
0.5540 0.1817 -0.0006 0 0 10 0
0.5540 0.1817 -0.0006 0 0 10 0
0.5600 0.1815 -0.0013 0 0 10 0
0.5520 0.1818 -0.0017 0 0 10 0
0.5520 0.1816 -0.0013 0 0 10 0
0.5780 0.1810 -0.0017 0 0 10 0
0.5780 0.1810 -0.0017 0 0 10 0
0.5700 0.1793 -0.0005 0 0 10 0
0.5760 0.1785 -0.0007 0 0 10 0
0.5780 0.1784 -0.0004 0 0 10 0
0.5600 0.1784 -0.0007 0 0 10 0
0.5600 0.1783 0.0015 0 0 10 0
0.5740 0.1783 0.0011 0 0 10 0
0.5640 0.1780 0.0009 0 0 10 0
0.5640 0.1780 0.0009 0 0 10 0
0.5980 0.1766 0.0002 0 0 10 0
0.5900 0.1758 -0.0002 0 0 10 0
0.5600 0.1754 -0.0006 0 0 10 0
0.5700 0.1749 -0.0012 0 0 10 0
0.5700 0.1749 -0.0012 0 0 10 0
0.5620 0.1744 -0.0010 0 0 10 0
0.5620 0.1744 -0.0010 0 0 10 0
0.5780 0.1746 -0.0018 0 0 10 0
0.5800 0.1744 -0.0018 0 0 10 0
0.5860 0.1739 -0.0017 0 0 10 0
0.5800 0.1727 -0.0013 0 0 10 0
0.5760 0.1719 -0.0012 0 0 10 0
0.5700 0.1717 -0.0014 0 0 10 0
0.5700 0.1717 -0.0014 0 0 10 0
0.5780 0.1708 -0.0017 0 0 10 0
0.5880 0.1707 -0.0033 0 0 10 0
0.5760 0.1704 -0.0034 0 0 10 0
0.5840 0.1696 -0.0024 0 0 10 0
0.5840 0.1696 -0.0024 0 0 10 0
0.5860 0.1687 -0.0034 0 0 10 0
0.5800 0.1682 -0.0033 0 0 10 0
0.5760 0.1678 -0.0025 0 0 10 0
0.5760 0.1678 -0.0025 0 0 10 0
0.5960 0.1678 -0.0045 0 0 10 0
0.5700 0.1677 -0.0055 0 0 10 0
0.5460 0.1675 -0.0057 0 0 10 0
0.5460 0.1675 -0.0057 0 0 10 0
0.5820 0.1669 -0.0052 0 0 10 0
0.5700 0.1664 -0.0053 0 0 10 0
0.5620 0.1655 -0.0037 0 0 10 0
0.6120 0.1648 -0.0046 0 0 10 0
0.5920 0.1641 -0.0047 0 0 10 0
0.5740 0.1635 -0.0043 0 0 10 0
0.6020 0.1631 -0.0068 0 0 10 0
0.6020 0.1631 -0.0068 0 0 10 0
0.5820 0.1630 -0.0068 0 0 10 0
0.5760 0.1621 -0.0068 0 0 10 0
0.6000 0.1608 -0.0057 0 0 10 0
0.6120 0.1605 -0.0049 0 0 10 0
0.6120 0.1608 -0.0046 0 0 10 0
0.6060 0.1608 -0.0046 0 0 10 0
0.6000 0.1612 -0.0035 0 0 10 0
0.5800 0.1610 -0.0041 0 0 10 0
0.5820 0.1609 -0.0038 0 0 10 0
0.5680 0.1605 -0.0046 0 0 10 0
0.5680 0.1605 -0.0046 0 0 10 0
0.5580 0.1601 -0.0047 0 0 10 0
0.6060 0.1598 -0.0068 0 0 10 0
0.5940 0.1591 -0.0076 0 0 10 0
0.5880 0.1589 -0.0058 0 0 10 0
0.5820 0.1581 -0.0026 0 0 10 0
0.5760 0.1578 -0.0018 0 0 10 0
0.5760 0.1578 -0.0018 0 0 10 0
0.5860 0.1572 0.0010 0 0 10 0
0.5840 0.1564 0.0008 0 0 10 0
0.6140 0.1561 0.0009 0 0 10 0
0.5760 0.1560 0.0006 0 0 10 0
0.5620 0.1559 0.0006 0 0 10 0
0.5620 0.1559 0.0006 0 0 10 0
0.5980 0.1558 0.0013 0 0 10 0
0.5880 0.1553 -0.0013 0 0 10 0
0.5860 0.1548 -0.0012 0 0 10 0
0.5820 0.1549 0.0011 0 0 10 0
0.5820 0.1549 0.0011 0 0 10 0
0.5780 0.1550 0.0009 0 0 10 0
0.5880 0.1546 -0.0001 0 0 10 0
0.5960 0.1541 -0.0004 0 0 10 0
0.5960 0.1535 -0.0002 0 0 10 0
0.5900 0.1530 -0.0013 0 0 10 0
0.5900 0.1530 -0.0013 0 0 10 0
0.6160 0.1522 -0.0016 0 0 10 0
0.5920 0.1514 -0.0033 0 0 10 0
0.5880 0.1509 -0.0034 0 0 10 0
0.5820 0.1508 -0.0065 0 0 10 0
0.5940 0.1508 -0.0060 0 0 10 0
0.5800 0.1514 -0.0043 0 0 10 0
0.6180 0.1513 -0.0039 0 0 10 0
0.5960 0.1512 -0.0040 0 0 10 0
0.6260 0.1505 -0.0040 0 0 10 0
0.5900 0.1499 -0.0034 0 0 10 0
0.5900 0.1499 -0.0034 0 0 10 0
0.5960 0.1495 -0.0071 0 0 10 0
0.5740 0.1491 -0.0071 0 0 10 0
0.6000 0.1490 -0.0067 0 0 10 0
0.5980 0.1485 -0.0067 0 0 10 0
0.6000 0.1482 -0.0081 0 0 10 0
0.5840 0.1475 -0.0079 0 0 10 0
0.6080 0.1469 -0.0064 0 0 10 0
0.6040 0.1469 -0.0060 0 0 10 0
0.6040 0.1468 -0.0070 0 0 10 0
0.5940 0.1458 -0.0069 0 0 10 0
0.6040 0.1446 -0.0053 0 0 10 0
0.5600 0.1439 -0.0048 0 0 10 0
0.5600 0.1439 -0.0048 0 0 10 0
0.5840 0.1436 -0.0037 0 0 10 0
0.5960 0.1438 -0.0034 0 0 10 0
0.6060 0.1440 -0.0005 0 0 10 0
0.5820 0.1434 -0.0030 0 0 10 0
0.5980 0.1427 -0.0024 0 0 10 0
0.5980 0.1427 -0.0024 0 0 10 0
0.5900 0.1418 -0.0021 0 0 10 0
0.5800 0.1414 -0.0041 0 0 10 0
0.6020 0.1409 -0.0041 0 0 10 0
0.6020 0.1409 -0.0041 0 0 10 0
0.5880 0.1399 -0.0021 0 0 10 0
0.5900 0.1394 -0.0023 0 0 10 0
0.5900 0.1394 -0.0023 0 0 10 0
0.5980 0.1395 -0.0029 0 0 10 0
0.6020 0.1394 -0.0031 0 0 10 0
0.5920 0.1396 -0.0034 0 0 10 0
0.5920 0.1396 -0.0034 0 0 10 0
0.6140 0.1396 -0.0033 0 0 10 0
0.6140 0.1396 -0.0033 0 0 10 0
0.6060 0.1391 -0.0030 0 0 10 0
0.6060 0.1391 -0.0030 0 0 10 0
0.6260 0.1374 -0.0036 0 0 10 0
0.6240 0.1367 -0.0021 0 0 10 0
0.6260 0.1360 -0.0025 0 0 10 0
0.6260 0.1360 -0.0025 0 0 10 0
0.6120 0.1358 -0.0026 0 0 10 0
0.6100 0.1352 -0.0018 0 0 10 0
0.5900 0.1346 -0.0015 0 0 10 0
0.5900 0.1346 -0.0015 0 0 10 0
0.6000 0.1344 -0.0018 0 0 10 0
0.6020 0.1344 -0.0005 0 0 10 0
0.6120 0.1345 -0.0005 0 0 10 0
0.5960 0.1343 -0.0006 0 0 10 0
0.5980 0.1344 -0.0003 0 0 10 0
0.6160 0.1344 0.0004 0 0 10 0
0.6120 0.1341 0.0007 0 0 10 0
0.5940 0.1336 0.0005 0 0 10 0
0.6120 0.1331 0.0005 0 0 10 0
0.6080 0.1324 0.0012 0 0 10 0
0.6080 0.1324 0.0012 0 0 10 0
0.6000 0.1316 0.0011 0 0 10 0
0.6220 0.1314 0.0005 0 0 10 0
0.6020 0.1312 0.0011 0 0 10 0
0.5920 0.1310 0.0018 0 0 10 0
0.5920 0.1310 0.0018 0 0 10 0
0.6080 0.1303 -0.0003 0 0 10 0
0.6080 0.1297 0.0015 0 0 10 0
0.6060 0.1290 0.0014 0 0 10 0
0.6080 0.1284 0.0019 0 0 10 0
0.6080 0.1284 0.0019 0 0 10 0
0.6220 0.1281 0.0019 0 0 10 0
0.6220 0.1283 0.0034 0 0 10 0
0.6080 0.1278 0.0034 0 0 10 0
0.6080 0.1278 0.0034 0 0 10 0
0.6300 0.1271 0.0030 0 0 10 0
0.6300 0.1271 0.0030 0 0 10 0
0.6260 0.1269 0.0013 0 0 10 0
0.5900 0.1263 0.0009 0 0 10 0
0.6040 0.1256 0.0007 0 0 10 0
0.6140 0.1249 0.0009 0 0 10 0
0.6060 0.1244 0.0021 0 0 10 0
0.6060 0.1244 0.0021 0 0 10 0
0.6100 0.1240 -0.0011 0 0 10 0
0.6140 0.1239 -0.0004 0 0 10 0
0.6240 0.1239 -0.0000 0 0 10 0
0.6200 0.1237 0.0021 0 0 10 0
0.6100 0.1229 0.0025 0 0 10 0
0.6100 0.1223 0.0026 0 0 10 0
0.6180 0.1217 0.0033 0 0 10 0
0.6180 0.1217 0.0033 0 0 10 0
0.6060 0.1210 0.0022 0 0 10 0
0.6000 0.1210 0.0013 0 0 10 0
0.6100 0.1207 0.0023 0 0 10 0
0.6100 0.1207 0.0031 0 0 10 0
0.6040 0.1206 0.0028 0 0 10 0
0.6060 0.1204 0.0029 0 0 10 0
0.6060 0.1204 0.0029 0 0 10 0
0.6100 0.1196 0.0023 0 0 10 0
0.6200 0.1190 0.0027 0 0 10 0
0.6340 0.1182 0.0023 0 0 10 0
0.6340 0.1182 0.0023 0 0 10 0
0.6120 0.1172 0.0038 0 0 10 0
0.6120 0.1172 0.0038 0 0 10 0
0.6140 0.1165 0.0041 0 0 10 0
0.6260 0.1159 0.0033 0 0 10 0
0.6400 0.1158 0.0045 0 0 10 0
0.6340 0.1152 0.0045 0 0 10 0
0.6180 0.1148 0.0036 0 0 10 0
0.6180 0.1148 0.0036 0 0 10 0
0.6280 0.1145 0.0032 0 0 10 0
0.6340 0.1139 0.0032 0 0 10 0
0.6240 0.1129 0.0020 0 0 10 0
0.6240 0.1129 0.0020 0 0 10 0
0.6300 0.1127 0.0019 0 0 10 0
0.6200 0.1123 0.0040 0 0 10 0
0.6200 0.1123 0.0040 0 0 10 0
0.6080 0.1118 0.0027 0 0 10 0
0.6160 0.1112 0.0032 0 0 10 0
0.6120 0.1103 0.0036 0 0 10 0
0.6100 0.1107 0.0021 0 0 10 0
0.6240 0.1107 0.0024 0 0 10 0
0.6220 0.1108 0.0029 0 0 10 0
0.6060 0.1104 0.0037 0 0 10 0
0.6300 0.1098 0.0020 0 0 10 0
0.6300 0.1098 0.0020 0 0 10 0
0.6180 0.1096 0.0012 0 0 10 0
0.6220 0.1088 0.0018 0 0 10 0
0.6180 0.1083 0.0020 0 0 10 0
0.6320 0.1083 0.0005 0 0 10 0
0.6480 0.1081 0.0012 0 0 10 0
0.6300 0.1081 0.0007 0 0 10 0
0.6200 0.1076 -0.0009 0 0 10 0
0.6200 0.1076 -0.0009 0 0 10 0
0.6300 0.1073 -0.0013 0 0 10 0
0.6420 0.1070 0.0004 0 0 10 0
0.6340 0.1063 0.0007 0 0 10 0
0.6340 0.1055 -0.0011 0 0 10 0
0.6360 0.1054 -0.0007 0 0 10 0
0.6500 0.1051 0.0010 0 0 10 0
0.6500 0.1051 0.0010 0 0 10 0
0.6340 0.1045 0.0008 0 0 10 0
0.6280 0.1037 0.0029 0 0 10 0
0.6480 0.1032 0.0027 0 0 10 0
0.6420 0.1024 0.0039 0 0 10 0
0.6420 0.1024 0.0039 0 0 10 0
0.6380 0.1015 0.0038 0 0 10 0
0.6160 0.1014 0.0024 0 0 10 0
0.6360 0.1006 0.0030 0 0 10 0
0.6260 0.0997 0.0043 0 0 10 0
0.6260 0.0997 0.0043 0 0 10 0
0.6300 0.0989 0.0025 0 0 10 0
0.6300 0.0987 0.0020 0 0 10 0
0.6300 0.0987 0.0025 0 0 10 0
0.6260 0.0989 0.0022 0 0 10 0
0.6440 0.0991 0.0001 0 0 10 0
0.6480 0.0989 -0.0003 0 0 10 0
0.6480 0.0989 -0.0003 0 0 10 0
0.6360 0.0986 0.0001 0 0 10 0
0.6360 0.0981 0.0002 0 0 10 0
0.6500 0.0968 0.0008 0 0 10 0
0.6520 0.0965 0.0006 0 0 10 0
0.6520 0.0963 0.0016 0 0 10 0
0.6480 0.0960 0.0020 0 0 10 0
0.6280 0.0960 0.0020 0 0 10 0
0.6220 0.0955 0.0018 0 0 10 0
0.6360 0.0949 0.0015 0 0 10 0
0.6460 0.0940 0.0004 0 0 10 0
0.6460 0.0940 0.0004 0 0 10 0
0.6320 0.0933 0.0003 0 0 10 0
0.6400 0.0931 0.0015 0 0 10 0
0.6220 0.0933 0.0016 0 0 10 0
0.6320 0.0932 0.0004 0 0 10 0
0.6400 0.0929 0.0004 0 0 10 0
0.6400 0.0919 0.0006 0 0 10 0
0.6320 0.0919 0.0006 0 0 10 0
0.6120 0.0915 0.0004 0 0 10 0
0.6160 0.0911 -0.0023 0 0 10 0
0.6260 0.0910 -0.0018 0 0 10 0
0.6260 0.0910 -0.0018 0 0 10 0
0.6440 0.0900 -0.0028 0 0 10 0
0.6340 0.0896 -0.0018 0 0 10 0
0.6380 0.0889 -0.0005 0 0 10 0
0.6380 0.0889 -0.0005 0 0 10 0
0.6240 0.0887 -0.0000 0 0 10 0
0.6340 0.0887 -0.0000 0 0 10 0
0.6440 0.0883 0.0005 0 0 10 0
0.6200 0.0879 0.0023 0 0 10 0
0.6220 0.0873 0.0033 0 0 10 0
0.6300 0.0867 0.0036 0 0 10 0
0.6300 0.0867 0.0036 0 0 10 0
0.6420 0.0847 0.0062 0 0 10 0
0.6420 0.0847 0.0062 0 0 10 0
0.6280 0.0843 0.0047 0 0 10 0
0.6360 0.0833 0.0071 0 0 10 0
0.6440 0.0824 0.0064 0 0 10 0
0.6440 0.0824 0.0064 0 0 10 0
0.6300 0.0819 0.0067 0 0 10 0
0.6340 0.0817 0.0063 0 0 10 0
0.6240 0.0816 0.0079 0 0 10 0
0.6380 0.0816 0.0073 0 0 10 0
0.6360 0.0813 0.0063 0 0 10 0
0.6160 0.0812 0.0062 0 0 10 0
0.6160 0.0812 0.0062 0 0 10 0
0.6300 0.0808 0.0079 0 0 10 0
0.6280 0.0802 0.0070 0 0 10 0
0.6500 0.0799 0.0064 0 0 10 0
0.6500 0.0799 0.0064 0 0 10 0
0.6420 0.0791 0.0064 0 0 10 0
0.6460 0.0784 0.0069 0 0 10 0
0.6280 0.0774 0.0053 0 0 10 0
0.6420 0.0770 0.0049 0 0 10 0
0.6320 0.0765 0.0044 0 0 10 0
0.6320 0.0765 0.0044 0 0 10 0
0.6560 0.0763 0.0013 0 0 10 0
0.6460 0.0763 0.0010 0 0 10 0
0.6360 0.0761 0.0016 0 0 10 0
0.6360 0.0761 0.0016 0 0 10 0
0.6540 0.0756 0.0011 0 0 10 0
0.6500 0.0751 -0.0007 0 0 10 0
0.6380 0.0745 0.0003 0 0 10 0
0.6380 0.0740 0.0028 0 0 10 0
0.6380 0.0738 0.0034 0 0 10 0
0.6460 0.0738 0.0034 0 0 10 0
0.6540 0.0734 0.0039 0 0 10 0
0.6460 0.0729 0.0052 0 0 10 0
0.6480 0.0724 0.0049 0 0 10 0
0.6480 0.0724 0.0049 0 0 10 0
0.6380 0.0715 0.0049 0 0 10 0
0.6500 0.0715 0.0043 0 0 10 0
0.6460 0.0715 0.0043 0 0 10 0
0.6300 0.0713 0.0051 0 0 10 0
0.6360 0.0714 0.0052 0 0 10 0
0.6360 0.0714 0.0052 0 0 10 0
0.6500 0.0715 0.0072 0 0 10 0
0.6360 0.0704 0.0059 0 0 10 0
0.6360 0.0704 0.0059 0 0 10 0
0.6540 0.0698 0.0059 0 0 10 0
0.6340 0.0692 0.0069 0 0 10 0
0.6300 0.0692 0.0060 0 0 10 0
0.6300 0.0692 0.0060 0 0 10 0
0.6340 0.0686 0.0070 0 0 10 0
0.6420 0.0683 0.0085 0 0 10 0
0.6280 0.0683 0.0097 0 0 10 0
0.6520 0.0677 0.0079 0 0 10 0
0.6520 0.0677 0.0079 0 0 10 0
0.6400 0.0662 0.0090 0 0 10 0
0.6400 0.0662 0.0090 0 0 10 0
0.6500 0.0655 0.0086 0 0 10 0
0.6340 0.0651 0.0068 0 0 10 0
0.6240 0.0650 0.0063 0 0 10 0
0.6240 0.0650 0.0063 0 0 10 0
0.6560 0.0649 0.0063 0 0 10 0
0.6660 0.0648 0.0065 0 0 10 0
0.6620 0.0647 0.0041 0 0 10 0
0.6620 0.0644 0.0058 0 0 10 0
0.6620 0.0639 0.0052 0 0 10 0
0.6520 0.0634 0.0059 0 0 10 0
0.6520 0.0634 0.0059 0 0 10 0
0.6540 0.0622 0.0031 0 0 10 0
0.6580 0.0615 0.0045 0 0 10 0
0.6560 0.0614 0.0042 0 0 10 0
0.6560 0.0614 0.0042 0 0 10 0
0.6560 0.0611 0.0032 0 0 10 0
0.6580 0.0611 0.0030 0 0 10 0
0.6580 0.0609 0.0026 0 0 10 0
0.6500 0.0598 0.0022 0 0 10 0
0.6500 0.0598 0.0022 0 0 10 0
0.6640 0.0589 0.0019 0 0 10 0
0.6600 0.0591 0.0016 0 0 10 0
0.6620 0.0593 0.0007 0 0 10 0
0.6620 0.0593 0.0007 0 0 10 0
0.6640 0.0590 0.0004 0 0 10 0
0.6640 0.0585 0.0009 0 0 10 0
0.6560 0.0581 0.0004 0 0 10 0
0.6720 0.0577 -0.0012 0 0 10 0
0.6680 0.0572 -0.0002 0 0 10 0
0.6740 0.0567 -0.0007 0 0 10 0
0.6740 0.0567 -0.0007 0 0 10 0
0.6840 0.0559 -0.0011 0 0 10 0
0.6420 0.0559 0.0009 0 0 10 0
0.6560 0.0557 0.0018 0 0 10 0
0.6560 0.0557 0.0018 0 0 10 0
0.6600 0.0550 0.0030 0 0 10 0
0.6560 0.0542 0.0041 0 0 10 0
0.6420 0.0542 0.0041 0 0 10 0
0.6640 0.0531 0.0047 0 0 10 0
0.6640 0.0531 0.0047 0 0 10 0
0.6540 0.0521 0.0046 0 0 10 0
0.6540 0.0521 0.0046 0 0 10 0
0.6640 0.0513 0.0049 0 0 10 0
0.6520 0.0508 0.0048 0 0 10 0
0.6720 0.0504 0.0031 0 0 10 0
0.6760 0.0501 0.0025 0 0 10 0
0.6760 0.0501 0.0025 0 0 10 0
0.6840 0.0501 0.0035 0 0 10 0
0.6800 0.0499 0.0026 0 0 10 0
0.6660 0.0492 0.0005 0 0 10 0
0.6700 0.0491 0.0005 0 0 10 0
0.6740 0.0489 0.0006 0 0 10 0
0.6740 0.0489 0.0006 0 0 10 0
0.6660 0.0486 0.0000 0 0 10 0
0.6920 0.0484 -0.0020 0 0 10 0
0.6800 0.0482 -0.0022 0 0 10 0
0.6840 0.0481 -0.0022 0 0 10 0
0.6840 0.0481 -0.0022 0 0 10 0
0.6800 0.0477 -0.0035 0 0 10 0
0.6660 0.0470 -0.0027 0 0 10 0
0.6820 0.0464 -0.0028 0 0 10 0
0.6760 0.0458 -0.0020 0 0 10 0
0.6800 0.0455 -0.0027 0 0 10 0
0.6800 0.0455 -0.0027 0 0 10 0
0.6680 0.0450 -0.0027 0 0 10 0
0.6700 0.0448 -0.0015 0 0 10 0
0.6760 0.0442 -0.0025 0 0 10 0
0.6760 0.0442 -0.0025 0 0 10 0
0.6900 0.0432 -0.0024 0 0 10 0
0.6900 0.0432 -0.0024 0 0 10 0
0.6980 0.0424 -0.0025 0 0 10 0
0.6800 0.0424 -0.0056 0 0 10 0
0.7060 0.0421 -0.0105 0 0 10 0
0.7060 0.0421 -0.0105 0 0 10 0
0.6900 0.0420 -0.0092 0 0 10 0
0.6780 0.0415 -0.0098 0 0 10 0
0.6740 0.0410 -0.0089 0 0 10 0
0.6880 0.0403 -0.0090 0 0 10 0
0.6740 0.0393 -0.0087 0 0 10 0
0.6820 0.0388 -0.0098 0 0 10 0
0.6820 0.0388 -0.0098 0 0 10 0
0.6780 0.0380 -0.0093 0 0 10 0
0.7100 0.0373 -0.0075 0 0 10 0
0.6880 0.0371 -0.0072 0 0 10 0
0.6880 0.0371 -0.0072 0 0 10 0
0.7020 0.0372 -0.0085 0 0 10 0
0.6800 0.0373 -0.0082 0 0 10 0
0.6920 0.0368 -0.0072 0 0 10 0
0.6740 0.0361 -0.0070 0 0 10 0
0.6780 0.0352 -0.0061 0 0 10 0
0.6920 0.0339 -0.0057 0 0 10 0
0.6920 0.0339 -0.0057 0 0 10 0
0.7000 0.0336 -0.0067 0 0 10 0
0.7020 0.0340 -0.0068 0 0 10 0
0.6960 0.0339 -0.0079 0 0 10 0
0.6960 0.0335 -0.0065 0 0 10 0
0.6960 0.0335 -0.0065 0 0 10 0
0.6980 0.0324 -0.0066 0 0 10 0
0.6960 0.0318 -0.0072 0 0 10 0
0.6620 0.0315 -0.0083 0 0 10 0
0.6720 0.0314 -0.0081 0 0 10 0
0.6720 0.0313 -0.0119 0 0 10 0
0.6840 0.0313 -0.0119 0 0 10 0
0.6980 0.0311 -0.0122 0 0 10 0
0.6600 0.0298 -0.0123 0 0 10 0
0.6820 0.0290 -0.0140 0 0 10 0
0.6680 0.0282 -0.0134 0 0 10 0
0.6720 0.0275 -0.0134 0 0 10 0
0.6840 0.0269 -0.0130 0 0 10 0
0.6840 0.0269 -0.0130 0 0 10 0
0.6780 0.0268 -0.0142 0 0 10 0
0.6780 0.0265 -0.0134 0 0 10 0
0.6780 0.0265 -0.0085 0 0 10 0
0.6780 0.0265 -0.0085 0 0 10 0
0.6720 0.0259 -0.0092 0 0 10 0
0.6720 0.0259 -0.0092 0 0 10 0
0.6760 0.0254 -0.0086 0 0 10 0
0.6740 0.0249 -0.0093 0 0 10 0
0.6800 0.0247 -0.0097 0 0 10 0
0.6860 0.0247 -0.0125 0 0 10 0
0.6860 0.0247 -0.0125 0 0 10 0
0.7020 0.0246 -0.0132 0 0 10 0
0.6820 0.0242 -0.0136 0 0 10 0
0.6920 0.0238 -0.0136 0 0 10 0
0.6920 0.0238 -0.0136 0 0 10 0
0.6900 0.0233 -0.0142 0 0 10 0
0.6880 0.0228 -0.0139 0 0 10 0
0.6860 0.0225 -0.0132 0 0 10 0
0.7060 0.0222 -0.0129 0 0 10 0
0.6860 0.0221 -0.0130 0 0 10 0
0.6860 0.0221 -0.0130 0 0 10 0
0.6820 0.0221 -0.0200 0 0 0 0
0.6760 0.0216 -0.0193 0 0 10 0
0.6860 0.0196 -0.0188 0 0 10 0
0.7140 0.0196 -0.0189 0 0 10 0
0.7140 0.0191 -0.0183 0 0 10 0
0.7140 0.0191 -0.0183 0 0 0 0
0.6960 0.0177 -0.0190 0 0 10 0
0.7020 0.0176 -0.0188 0 0 10 0
0.7020 0.0176 -0.0183 0 0 10 0
0.6880 0.0175 -0.0183 0 0 0 0
0.7120 0.0172 -0.0179 0 0 10 0
0.7120 0.0151 -0.0162 0 0 10 0
0.7060 0.0144 -0.0134 0 0 0 0
0.7140 0.0144 -0.0147 0 0 10 0
0.6900 0.0136 -0.0150 0 0 10 0
0.6900 0.0136 -0.0150 0 0 10 0
0.7060 0.0133 -0.0184 0 0 0 0
0.6860 0.0128 -0.0161 0 0 10 0
0.6760 0.0127 -0.0157 0 0 10 0
0.6760 0.0127 -0.0157 0 0 10 0
0.6980 0.0122 -0.0147 0 0 10 0
0.6980 0.0121 -0.0133 0 0 10 0
0.7080 0.0115 -0.0184 0 0 0 0
0.7200 0.0117 -0.0165 0 0 10 0
0.7140 0.0107 -0.0160 0 0 10 0
0.6900 0.0097 -0.0148 0 0 0 0
0.7080 0.0090 -0.0133 0 0 10 0
0.7100 0.0080 -0.0112 0 0 10 0
0.7000 0.0077 -0.0113 0 0 0 0
0.7040 0.0080 -0.0092 0 0 10 0
0.7160 0.0075 -0.0081 0 0 10 0
0.7160 0.0075 -0.0081 0 0 10 0
0.7080 0.0070 -0.0072 0 0 0 0
0.7080 0.0067 -0.0096 0 0 10 0
