0.5080 0.3857 0.0079 0 0 10 0
0.5000 0.3867 0.0114 0 0 10 0
0.5020 0.3867 0.0117 0 0 10 0
0.5080 0.3877 0.0116 0 0 10 0
0.5200 0.3877 0.0116 0 0 10 0
0.5240 0.3875 0.0119 0 0 10 0
0.5440 0.3874 0.0116 0 0 10 0
0.5360 0.3875 0.0120 0 0 10 0
0.5360 0.3875 0.0120 0 0 10 0
0.5120 0.3877 0.0114 0 0 10 0
0.5280 0.3876 0.0116 0 0 10 0
0.5260 0.3875 0.0119 0 0 10 0
0.5260 0.3867 0.0118 0 0 10 0
0.5240 0.3862 0.0109 0 0 10 0
0.5320 0.3860 0.0110 0 0 10 0
0.5320 0.3860 0.0110 0 0 10 0
0.5200 0.3857 0.0104 0 0 10 0
0.5460 0.3856 0.0101 0 0 10 0
0.5240 0.3852 0.0087 0 0 10 0
0.5280 0.3848 0.0082 0 0 10 0
0.5280 0.3848 0.0082 0 0 10 0
0.5320 0.3840 0.0079 0 0 10 0
0.5200 0.3833 0.0083 0 0 10 0
0.5220 0.3833 0.0082 0 0 10 0
0.5180 0.3832 0.0069 0 0 10 0
0.5060 0.3830 0.0065 0 0 10 0
0.5260 0.3827 0.0051 0 0 10 0
0.5260 0.3827 0.0051 0 0 10 0
0.5260 0.3822 0.0048 0 0 10 0
0.5060 0.3817 0.0044 0 0 10 0
0.5280 0.3815 0.0040 0 0 10 0
0.5280 0.3815 0.0040 0 0 10 0
0.5240 0.3815 0.0054 0 0 10 0
0.5040 0.3812 0.0067 0 0 10 0
0.5140 0.3808 0.0068 0 0 10 0
0.5140 0.3803 0.0062 0 0 10 0
0.5140 0.3802 0.0067 0 0 10 0
0.5200 0.3798 0.0072 0 0 10 0
0.5200 0.3798 0.0072 0 0 10 0
0.4920 0.3792 0.0073 0 0 10 0
0.5060 0.3790 0.0076 0 0 10 0
0.5140 0.3787 0.0080 0 0 10 0
0.5120 0.3784 0.0100 0 0 10 0
0.4880 0.3777 0.0097 0 0 10 0
0.5080 0.3775 0.0101 0 0 10 0
0.5080 0.3775 0.0101 0 0 10 0
0.5060 0.3775 0.0091 0 0 10 0
0.5100 0.3774 0.0087 0 0 10 0
0.5280 0.3774 0.0080 0 0 10 0
0.5280 0.3774 0.0080 0 0 10 0
0.4920 0.3763 0.0093 0 0 10 0
0.4920 0.3763 0.0093 0 0 10 0
0.4940 0.3758 0.0094 0 0 10 0
0.5020 0.3754 0.0084 0 0 10 0
0.4960 0.3752 0.0087 0 0 10 0
0.4960 0.3754 0.0087 0 0 10 0
0.4960 0.3754 0.0087 0 0 10 0
0.4960 0.3748 0.0086 0 0 10 0
0.4980 0.3742 0.0089 0 0 10 0
0.5200 0.3737 0.0094 0 0 10 0
0.5120 0.3733 0.0082 0 0 10 0
0.5140 0.3731 0.0084 0 0 10 0
0.5040 0.3728 0.0085 0 0 10 0
0.5020 0.3723 0.0083 0 0 10 0
0.5140 0.3714 0.0091 0 0 10 0
0.5140 0.3702 0.0060 0 0 10 0
0.5240 0.3702 0.0060 0 0 10 0
0.5300 0.3691 0.0061 0 0 10 0
0.5120 0.3691 0.0053 0 0 10 0
0.5140 0.3694 0.0047 0 0 10 0
0.5320 0.3697 0.0014 0 0 10 0
0.5340 0.3699 0.0012 0 0 10 0
0.5340 0.3699 0.0012 0 0 10 0
0.5020 0.3695 0.0019 0 0 10 0
0.5300 0.3688 0.0015 0 0 10 0
0.5020 0.3685 -0.0000 0 0 10 0
0.5240 0.3683 0.0001 0 0 10 0
0.5240 0.3683 0.0001 0 0 10 0
0.5060 0.3670 0.0015 0 0 10 0
0.5280 0.3670 0.0015 0 0 10 0
0.4980 0.3667 0.0004 0 0 10 0
0.4980 0.3667 0.0004 0 0 10 0
0.5060 0.3667 0.0032 0 0 10 0
0.5040 0.3667 0.0032 0 0 10 0
0.5080 0.3666 0.0036 0 0 10 0
0.5100 0.3661 0.0043 0 0 10 0
0.5040 0.3651 0.0054 0 0 10 0
0.5020 0.3642 0.0054 0 0 10 0
0.5140 0.3632 0.0059 0 0 10 0
0.5020 0.3630 0.0056 0 0 10 0
0.5140 0.3629 0.0080 0 0 10 0
0.5220 0.3628 0.0084 0 0 10 0
0.5280 0.3622 0.0075 0 0 10 0
0.5280 0.3622 0.0075 0 0 10 0
0.5020 0.3615 0.0075 0 0 10 0
0.5020 0.3610 0.0093 0 0 10 0
0.5180 0.3608 0.0090 0 0 10 0
0.5160 0.3602 0.0092 0 0 10 0
0.5160 0.3602 0.0092 0 0 10 0
0.5140 0.3605 0.0132 0 0 10 0
0.5140 0.3605 0.0132 0 0 10 0
0.5140 0.3607 0.0128 0 0 10 0
0.5200 0.3603 0.0126 0 0 10 0
0.5140 0.3600 0.0132 0 0 10 0
0.5240 0.3596 0.0131 0 0 10 0
0.5240 0.3596 0.0131 0 0 10 0
0.5440 0.3585 0.0123 0 0 10 0
0.5440 0.3585 0.0123 0 0 10 0
0.5140 0.3570 0.0138 0 0 10 0
0.5060 0.3569 0.0138 0 0 10 0
0.5120 0.3566 0.0161 0 0 10 0
0.5120 0.3566 0.0161 0 0 10 0
0.5060 0.3559 0.0162 0 0 10 0
0.5060 0.3559 0.0162 0 0 10 0
0.5120 0.3552 0.0162 0 0 10 0
0.4940 0.3549 0.0151 0 0 10 0
0.5080 0.3549 0.0138 0 0 10 0
0.5080 0.3549 0.0138 0 0 10 0
0.5200 0.3549 0.0122 0 0 10 0
0.5120 0.3537 0.0121 0 0 10 0
0.5180 0.3537 0.0121 0 0 10 0
0.4780 0.3533 0.0118 0 0 10 0
0.4780 0.3533 0.0118 0 0 10 0
0.4960 0.3519 0.0106 0 0 10 0
0.4960 0.3519 0.0106 0 0 10 0
0.4880 0.3510 0.0120 0 0 10 0
0.5120 0.3508 0.0122 0 0 10 0
0.4940 0.3507 0.0098 0 0 10 0
0.4920 0.3504 0.0097 0 0 10 0
0.4820 0.3494 0.0110 0 0 10 0
0.4820 0.3494 0.0110 0 0 10 0
0.4960 0.3489 0.0094 0 0 10 0
0.4940 0.3487 0.0107 0 0 10 0
0.5140 0.3485 0.0106 0 0 10 0
0.5000 0.3483 0.0083 0 0 10 0
0.5020 0.3478 0.0078 0 0 10 0
0.4980 0.3475 0.0063 0 0 10 0
0.4900 0.3471 0.0063 0 0 10 0
0.4900 0.3471 0.0063 0 0 10 0
0.5020 0.3470 0.0082 0 0 10 0
0.4840 0.3468 0.0084 0 0 10 0
0.5260 0.3466 0.0105 0 0 10 0
0.5020 0.3460 0.0085 0 0 10 0
0.5240 0.3460 0.0085 0 0 10 0
0.5040 0.3452 0.0102 0 0 10 0
0.5160 0.3447 0.0101 0 0 10 0
0.5080 0.3443 0.0080 0 0 10 0
0.5100 0.3439 0.0078 0 0 10 0
0.5100 0.3439 0.0078 0 0 10 0
0.4980 0.3438 0.0076 0 0 10 0
0.4960 0.3434 0.0075 0 0 10 0
0.5140 0.3432 0.0057 0 0 10 0
0.5160 0.3430 0.0054 0 0 10 0
0.5160 0.3421 0.0064 0 0 10 0
0.5120 0.3421 0.0064 0 0 10 0
0.5280 0.3415 0.0066 0 0 10 0
0.5240 0.3407 0.0051 0 0 10 0
0.5220 0.3404 0.0049 0 0 10 0
0.5220 0.3401 0.0054 0 0 10 0
0.5220 0.3401 0.0054 0 0 10 0
0.5220 0.3398 0.0048 0 0 10 0
0.5280 0.3395 0.0055 0 0 10 0
0.5160 0.3390 0.0056 0 0 10 0
0.4960 0.3379 0.0049 0 0 10 0
0.4960 0.3379 0.0049 0 0 10 0
0.5260 0.3373 0.0045 0 0 10 0
0.5300 0.3368 0.0057 0 0 10 0
0.5100 0.3366 0.0058 0 0 10 0
0.5360 0.3362 0.0031 0 0 10 0
0.5360 0.3362 0.0031 0 0 10 0
0.5100 0.3357 0.0029 0 0 10 0
0.5340 0.3349 0.0033 0 0 10 0
0.5140 0.3341 0.0036 0 0 10 0
0.5200 0.3334 0.0018 0 0 10 0
0.5100 0.3331 0.0015 0 0 10 0
0.5300 0.3330 0.0017 0 0 10 0
0.5300 0.3330 0.0017 0 0 10 0
0.5140 0.3330 0.0026 0 0 10 0
0.5040 0.3329 0.0025 0 0 10 0
0.5260 0.3327 0.0004 0 0 10 0
0.5280 0.3322 0.0002 0 0 10 0
0.5120 0.3312 -0.0025 0 0 10 0
0.5120 0.3312 -0.0025 0 0 10 0
0.5260 0.3308 -0.0029 0 0 10 0
0.5000 0.3304 -0.0027 0 0 10 0
0.5000 0.3304 -0.0027 0 0 10 0
0.5260 0.3298 -0.0030 0 0 10 0
0.5140 0.3293 -0.0014 0 0 10 0
0.5140 0.3290 -0.0034 0 0 10 0
0.5140 0.3282 -0.0047 0 0 10 0
0.5140 0.3282 -0.0047 0 0 10 0
0.5300 0.3278 -0.0056 0 0 10 0
0.5100 0.3278 -0.0057 0 0 10 0
0.4980 0.3273 -0.0067 0 0 10 0
0.5100 0.3265 -0.0065 0 0 10 0
0.5100 0.3265 -0.0065 0 0 10 0
0.5040 0.3258 -0.0046 0 0 10 0
0.5260 0.3251 -0.0045 0 0 10 0
0.5220 0.3245 -0.0051 0 0 10 0
0.5020 0.3243 -0.0043 0 0 10 0
0.5020 0.3243 -0.0043 0 0 10 0
0.4920 0.3238 -0.0021 0 0 10 0
0.4940 0.3234 -0.0011 0 0 10 0
0.5040 0.3231 -0.0038 0 0 10 0
0.5040 0.3231 -0.0038 0 0 10 0
0.4940 0.3228 -0.0036 0 0 10 0
0.4940 0.3228 -0.0036 0 0 10 0
0.5120 0.3227 -0.0034 0 0 10 0
0.5100 0.3221 -0.0034 0 0 10 0
0.5340 0.3220 -0.0016 0 0 10 0
0.5180 0.3221 -0.0004 0 0 10 0
0.5180 0.3221 -0.0004 0 0 10 0
0.5300 0.3217 0.0002 0 0 10 0
0.5300 0.3217 0.0002 0 0 10 0
0.5280 0.3212 0.0020 0 0 10 0
0.5220 0.3206 0.0003 0 0 10 0
0.5140 0.3202 -0.0018 0 0 10 0
0.5100 0.3203 -0.0023 0 0 10 0
0.5100 0.3203 -0.0023 0 0 10 0
0.5140 0.3200 -0.0014 0 0 10 0
0.5140 0.3194 -0.0014 0 0 10 0
0.4940 0.3193 -0.0009 0 0 10 0
0.4940 0.3193 -0.0009 0 0 10 0
0.5160 0.3178 0.0006 0 0 10 0
0.5160 0.3178 0.0006 0 0 10 0
0.5200 0.3174 0.0009 0 0 10 0
0.5320 0.3170 0.0012 0 0 10 0
0.5060 0.3169 0.0022 0 0 10 0
0.5360 0.3166 0.0022 0 0 10 0
0.5180 0.3159 0.0020 0 0 10 0
0.5180 0.3159 0.0020 0 0 10 0
0.5240 0.3154 0.0039 0 0 10 0
0.5220 0.3143 0.0038 0 0 10 0
0.5100 0.3136 -0.0018 0 0 10 0
0.5000 0.3130 -0.0022 0 0 10 0
0.5000 0.3130 -0.0022 0 0 10 0
0.5320 0.3125 -0.0039 0 0 10 0
0.5180 0.3119 -0.0055 0 0 10 0
0.5100 0.3120 -0.0055 0 0 10 0
0.5100 0.3120 -0.0055 0 0 10 0
0.5120 0.3116 -0.0068 0 0 10 0
0.5380 0.3116 -0.0068 0 0 10 0
0.5400 0.3110 -0.0052 0 0 10 0
0.5220 0.3102 -0.0043 0 0 10 0
0.5080 0.3100 -0.0035 0 0 10 0
0.5160 0.3098 -0.0034 0 0 10 0
0.5160 0.3098 -0.0034 0 0 10 0
0.5200 0.3090 -0.0021 0 0 10 0
0.5200 0.3090 -0.0021 0 0 10 0
0.5160 0.3089 -0.0016 0 0 10 0
0.5180 0.3089 -0.0015 0 0 10 0
0.5080 0.3088 -0.0024 0 0 10 0
0.5080 0.3086 -0.0029 0 0 10 0
0.5180 0.3086 -0.0029 0 0 10 0
0.5260 0.3079 -0.0003 0 0 10 0
0.5360 0.3073 -0.0016 0 0 10 0
0.5200 0.3070 -0.0014 0 0 10 0
0.5240 0.3066 -0.0008 0 0 10 0
0.5440 0.3060 -0.0011 0 0 10 0
0.5440 0.3060 -0.0011 0 0 10 0
0.5340 0.3055 -0.0015 0 0 10 0
0.5360 0.3048 -0.0014 0 0 10 0
0.5220 0.3045 -0.0006 0 0 10 0
0.5220 0.3045 -0.0006 0 0 10 0
0.5340 0.3041 -0.0004 0 0 10 0
0.5260 0.3042 -0.0004 0 0 10 0
0.5320 0.3039 0.0001 0 0 10 0
0.5440 0.3037 0.0010 0 0 10 0
0.5180 0.3032 0.0008 0 0 10 0
0.5440 0.3028 0.0003 0 0 10 0
0.5440 0.3028 0.0003 0 0 10 0
0.5340 0.3023 0.0027 0 0 10 0
0.5180 0.3022 0.0023 0 0 10 0
0.5480 0.3018 0.0026 0 0 10 0
0.5340 0.3011 0.0019 0 0 10 0
0.5400 0.3003 0.0034 0 0 10 0
0.5400 0.3003 0.0034 0 0 10 0
0.5300 0.2996 0.0040 0 0 10 0
0.5360 0.2987 0.0043 0 0 10 0
0.5220 0.2983 0.0055 0 0 10 0
0.5400 0.2986 0.0058 0 0 10 0
0.5400 0.2986 0.0058 0 0 10 0
0.5400 0.2985 0.0064 0 0 10 0
0.5400 0.2985 0.0064 0 0 10 0
0.5320 0.2979 0.0075 0 0 10 0
0.5400 0.2971 0.0066 0 0 10 0
0.5360 0.2962 0.0069 0 0 10 0
0.5360 0.2962 0.0069 0 0 10 0
0.5260 0.2955 0.0034 0 0 10 0
0.5440 0.2950 0.0040 0 0 10 0
0.5480 0.2949 0.0029 0 0 10 0
0.5500 0.2942 0.0031 0 0 10 0
0.5320 0.2940 0.0054 0 0 10 0
0.5400 0.2944 0.0055 0 0 10 0
0.5400 0.2944 0.0055 0 0 10 0
0.5380 0.2946 0.0050 0 0 10 0
0.5280 0.2944 0.0049 0 0 10 0
0.5320 0.2937 0.0082 0 0 10 0
0.5260 0.2929 0.0079 0 0 10 0
0.5260 0.2918 0.0084 0 0 10 0
0.5260 0.2918 0.0084 0 0 10 0
0.5320 0.2913 0.0103 0 0 10 0
0.5400 0.2909 0.0101 0 0 10 0
0.5280 0.2901 0.0096 0 0 10 0
0.5320 0.2890 0.0116 0 0 10 0
0.5320 0.2890 0.0116 0 0 10 0
0.5320 0.2882 0.0120 0 0 10 0
0.5340 0.2878 0.0123 0 0 10 0
0.5260 0.2876 0.0114 0 0 10 0
0.5380 0.2874 0.0087 0 0 10 0
0.5440 0.2871 0.0088 0 0 10 0
0.5440 0.2871 0.0088 0 0 10 0
0.5420 0.2864 0.0094 0 0 10 0
0.5380 0.2865 0.0090 0 0 10 0
0.5380 0.2866 0.0104 0 0 10 0
0.5220 0.2863 0.0101 0 0 10 0
0.5220 0.2863 0.0101 0 0 10 0
0.5340 0.2858 0.0107 0 0 10 0
0.5320 0.2851 0.0090 0 0 10 0
0.5120 0.2845 0.0099 0 0 10 0
0.5380 0.2843 0.0098 0 0 10 0
0.5280 0.2841 0.0100 0 0 10 0
0.5280 0.2841 0.0100 0 0 10 0
0.5420 0.2841 0.0112 0 0 10 0
0.5400 0.2838 0.0114 0 0 10 0
0.5480 0.2833 0.0099 0 0 10 0
0.5480 0.2833 0.0099 0 0 10 0
0.5360 0.2821 0.0091 0 0 10 0
0.5560 0.2816 0.0092 0 0 10 0
0.5560 0.2816 0.0092 0 0 10 0
0.5360 0.2810 0.0064 0 0 10 0
0.5320 0.2808 0.0067 0 0 10 0
0.5460 0.2809 0.0081 0 0 10 0
0.5460 0.2807 0.0086 0 0 10 0
0.5460 0.2807 0.0086 0 0 10 0
0.5500 0.2806 0.0046 0 0 10 0
0.5420 0.2798 0.0028 0 0 10 0
0.5380 0.2792 0.0014 0 0 10 0
0.5640 0.2786 0.0021 0 0 10 0
0.5460 0.2776 0.0017 0 0 10 0
0.5460 0.2776 0.0017 0 0 10 0
0.5160 0.2777 0.0046 0 0 10 0
0.5220 0.2779 0.0036 0 0 10 0
0.5380 0.2775 0.0034 0 0 10 0
0.5120 0.2769 0.0036 0 0 10 0
0.5560 0.2764 0.0054 0 0 10 0
0.5560 0.2764 0.0054 0 0 10 0
0.5260 0.2754 0.0056 0 0 10 0
0.5260 0.2754 0.0056 0 0 10 0
0.5440 0.2749 0.0008 0 0 10 0
0.5320 0.2750 0.0005 0 0 10 0
0.5420 0.2750 -0.0012 0 0 10 0
0.5400 0.2749 -0.0013 0 0 10 0
0.5240 0.2744 -0.0015 0 0 10 0
0.5240 0.2744 -0.0015 0 0 10 0
0.5400 0.2741 -0.0013 0 0 10 0
0.5180 0.2737 -0.0016 0 0 10 0
0.5260 0.2733 -0.0016 0 0 10 0
0.5260 0.2730 -0.0008 0 0 10 0
0.5260 0.2730 -0.0008 0 0 10 0
0.5280 0.2726 -0.0003 0 0 10 0
0.5520 0.2721 -0.0006 0 0 10 0
0.5380 0.2715 -0.0000 0 0 10 0
0.5320 0.2710 0.0009 0 0 10 0
0.5420 0.2702 0.0013 0 0 10 0
0.5420 0.2698 0.0014 0 0 10 0
0.5300 0.2698 0.0014 0 0 10 0
0.5360 0.2694 0.0019 0 0 10 0
0.5460 0.2684 0.0029 0 0 10 0
0.5260 0.2676 0.0014 0 0 10 0
0.5260 0.2676 0.0014 0 0 10 0
0.5440 0.2671 0.0014 0 0 10 0
0.5380 0.2668 0.0018 0 0 10 0
0.5460 0.2668 0.0022 0 0 10 0
0.5480 0.2664 0.0005 0 0 10 0
0.5400 0.2659 0.0000 0 0 10 0
0.5320 0.2655 0.0027 0 0 10 0
0.5320 0.2655 0.0027 0 0 10 0
0.5500 0.2648 0.0025 0 0 10 0
0.5480 0.2640 0.0074 0 0 10 0
0.5440 0.2636 0.0067 0 0 10 0
0.5440 0.2636 0.0067 0 0 10 0
0.5280 0.2636 0.0055 0 0 10 0
0.5280 0.2634 0.0053 0 0 10 0
0.5300 0.2629 0.0039 0 0 10 0
0.5280 0.2630 0.0090 0 0 10 0
0.5200 0.2629 0.0094 0 0 10 0
0.5140 0.2627 0.0040 0 0 10 0
0.5140 0.2627 0.0040 0 0 10 0
0.5500 0.2617 0.0046 0 0 10 0
0.5420 0.2609 0.0057 0 0 10 0
0.5260 0.2602 0.0058 0 0 10 0
0.5260 0.2602 0.0058 0 0 10 0
0.5280 0.2598 0.0043 0 0 10 0
0.5300 0.2597 0.0043 0 0 10 0
0.5080 0.2598 0.0044 0 0 10 0
0.5260 0.2593 0.0051 0 0 10 0
0.5360 0.2589 0.0018 0 0 10 0
0.5360 0.2585 0.0024 0 0 10 0
0.5360 0.2585 0.0024 0 0 10 0
0.5440 0.2569 0.0018 0 0 10 0
0.5120 0.2565 0.0015 0 0 10 0
0.5120 0.2565 0.0015 0 0 10 0
0.5300 0.2565 0.0022 0 0 10 0
0.5300 0.2565 0.0022 0 0 10 0
0.5360 0.2559 0.0002 0 0 10 0
0.5380 0.2551 0.0012 0 0 10 0
0.5400 0.2541 0.0013 0 0 10 0
0.5400 0.2541 0.0013 0 0 10 0
0.5360 0.2534 0.0025 0 0 10 0
0.5380 0.2530 0.0027 0 0 10 0
0.5380 0.2521 0.0033 0 0 10 0
0.5320 0.2514 0.0018 0 0 10 0
0.5220 0.2513 0.0013 0 0 10 0
0.5220 0.2513 0.0013 0 0 10 0
0.5160 0.2510 0.0005 0 0 10 0
0.5160 0.2505 0.0006 0 0 10 0
0.5160 0.2505 0.0006 0 0 10 0
0.5320 0.2500 0.0009 0 0 10 0
0.5300 0.2495 0.0009 0 0 10 0
0.5300 0.2495 0.0009 0 0 10 0
0.5340 0.2484 0.0010 0 0 10 0
0.5440 0.2481 0.0017 0 0 10 0
0.5460 0.2479 0.0014 0 0 10 0
0.5460 0.2479 0.0014 0 0 10 0
0.5380 0.2472 0.0026 0 0 10 0
0.5600 0.2472 0.0026 0 0 10 0
0.5660 0.2465 0.0038 0 0 10 0
0.5540 0.2465 0.0041 0 0 10 0
0.5540 0.2461 0.0045 0 0 10 0
0.5540 0.2461 0.0045 0 0 10 0
0.5600 0.2453 0.0057 0 0 10 0
0.5260 0.2448 0.0051 0 0 10 0
0.5620 0.2445 0.0068 0 0 10 0
0.5640 0.2437 0.0064 0 0 10 0
0.5640 0.2437 0.0064 0 0 10 0
0.5660 0.2428 0.0073 0 0 10 0
0.5660 0.2428 0.0073 0 0 10 0
0.5460 0.2421 0.0065 0 0 10 0
0.5340 0.2414 0.0067 0 0 10 0
0.5200 0.2411 0.0077 0 0 10 0
0.5180 0.2409 0.0080 0 0 10 0
0.5180 0.2409 0.0080 0 0 10 0
0.5380 0.2407 0.0078 0 0 10 0
0.5380 0.2407 0.0078 0 0 10 0
0.5540 0.2401 0.0086 0 0 10 0
0.5460 0.2397 0.0085 0 0 10 0
0.5420 0.2394 0.0088 0 0 10 0
0.5420 0.2394 0.0088 0 0 10 0
0.5480 0.2381 0.0103 0 0 10 0
0.5380 0.2377 0.0098 0 0 10 0
0.5540 0.2368 0.0104 0 0 10 0
0.5500 0.2368 0.0110 0 0 10 0
0.5500 0.2368 0.0110 0 0 10 0
0.5440 0.2368 0.0122 0 0 10 0
0.5380 0.2366 0.0116 0 0 10 0
0.5380 0.2366 0.0116 0 0 10 0
0.5560 0.2365 0.0112 0 0 10 0
0.5340 0.2365 0.0131 0 0 10 0
0.5540 0.2365 0.0129 0 0 10 0
0.5540 0.2365 0.0129 0 0 10 0
0.5360 0.2360 0.0149 0 0 10 0
0.5260 0.2348 0.0164 0 0 10 0
0.5380 0.2348 0.0164 0 0 10 0
0.5280 0.2343 0.0164 0 0 10 0
0.5220 0.2338 0.0171 0 0 10 0
0.5220 0.2338 0.0171 0 0 10 0
0.5340 0.2324 0.0176 0 0 10 0
0.5320 0.2315 0.0176 0 0 10 0
0.5420 0.2311 0.0177 0 0 10 0
0.5420 0.2311 0.0177 0 0 10 0
0.5420 0.2312 0.0186 0 0 10 0
0.5580 0.2311 0.0182 0 0 10 0
0.5600 0.2310 0.0196 0 0 10 0
0.5500 0.2308 0.0198 0 0 10 0
0.5500 0.2308 0.0198 0 0 10 0
0.5300 0.2300 0.0201 0 0 10 0
0.5480 0.2292 0.0221 0 0 10 0
0.5500 0.2288 0.0228 0 0 10 0
0.5620 0.2285 0.0232 0 0 10 0
0.5620 0.2284 0.0248 0 0 10 0
0.5540 0.2284 0.0248 0 0 10 0
0.5360 0.2287 0.0252 0 0 10 0
0.5480 0.2283 0.0236 0 0 10 0
0.5480 0.2283 0.0236 0 0 10 0
0.5320 0.2268 0.0243 0 0 10 0
0.5360 0.2268 0.0243 0 0 10 0
0.5620 0.2272 0.0230 0 0 10 0
0.5260 0.2277 0.0227 0 0 10 0
0.5300 0.2274 0.0233 0 0 10 0
0.5540 0.2268 0.0215 0 0 10 0
0.5540 0.2268 0.0215 0 0 10 0
0.5340 0.2257 0.0213 0 0 10 0
0.5500 0.2247 0.0222 0 0 10 0
0.5540 0.2244 0.0222 0 0 10 0
0.5580 0.2244 0.0207 0 0 10 0
0.5580 0.2244 0.0207 0 0 10 0
0.5600 0.2245 0.0218 0 0 10 0
0.5460 0.2243 0.0216 0 0 10 0
0.5280 0.2236 0.0216 0 0 10 0
0.5320 0.2224 0.0209 0 0 10 0
0.5320 0.2224 0.0209 0 0 10 0
0.5680 0.2214 0.0207 0 0 10 0
0.5680 0.2214 0.0207 0 0 10 0
0.5740 0.2213 0.0209 0 0 10 0
0.5340 0.2214 0.0193 0 0 10 0
0.5480 0.2212 0.0187 0 0 10 0
0.5500 0.2210 0.0174 0 0 10 0
0.5540 0.2202 0.0144 0 0 10 0
0.5420 0.2196 0.0143 0 0 10 0
0.5440 0.2187 0.0150 0 0 10 0
0.5440 0.2187 0.0150 0 0 10 0
0.5460 0.2175 0.0128 0 0 10 0
0.5160 0.2174 0.0126 0 0 10 0
0.5340 0.2173 0.0135 0 0 10 0
0.5200 0.2171 0.0135 0 0 10 0
0.5620 0.2166 0.0135 0 0 10 0
0.5620 0.2160 0.0132 0 0 10 0
0.5520 0.2160 0.0132 0 0 10 0
0.5540 0.2148 0.0140 0 0 10 0
0.5740 0.2146 0.0122 0 0 10 0
0.5600 0.2143 0.0131 0 0 10 0
0.5460 0.2143 0.0132 0 0 10 0
0.5460 0.2143 0.0132 0 0 10 0
0.5560 0.2139 0.0100 0 0 10 0
0.5520 0.2132 0.0105 0 0 10 0
0.5600 0.2124 0.0108 0 0 10 0
0.5600 0.2120 0.0115 0 0 10 0
0.5380 0.2120 0.0115 0 0 10 0
0.5540 0.2115 0.0092 0 0 10 0
0.5440 0.2113 0.0093 0 0 10 0
0.5500 0.2114 0.0103 0 0 10 0
0.5500 0.2114 0.0103 0 0 10 0
0.5720 0.2118 0.0081 0 0 10 0
0.5460 0.2115 0.0082 0 0 10 0
0.5460 0.2115 0.0082 0 0 10 0
0.5500 0.2103 0.0097 0 0 10 0
0.5400 0.2093 0.0097 0 0 10 0
0.5460 0.2086 0.0099 0 0 10 0
0.5460 0.2086 0.0099 0 0 10 0
0.5600 0.2080 0.0098 0 0 10 0
0.5500 0.2069 0.0101 0 0 10 0
0.5500 0.2069 0.0096 0 0 10 0
0.5720 0.2065 0.0094 0 0 10 0
0.5640 0.2062 0.0079 0 0 10 0
0.5580 0.2062 0.0077 0 0 10 0
0.5580 0.2062 0.0077 0 0 10 0
0.5280 0.2055 0.0078 0 0 0 0
0.5600 0.2025 0.0073 0 0 0 -10
0.5520 0.2017 0.0075 0 0 0 -10
0.5520 0.2014 0.0077 0 0 0 -10
0.5360 0.2007 0.0087 0 0 0 -10
0.5580 0.2001 0.0086 0 0 0 0
0.5480 0.1985 0.0027 0 0 0 -10
0.5640 0.1982 -0.0029 0 0 0 0
0.5540 0.1983 -0.0045 0 0 10 0
0.5680 0.1991 -0.0031 0 0 10 0
0.5740 0.1991 -0.0024 0 0 10 0
0.5700 0.1983 -0.0037 0 0 10 0
0.5680 0.1979 -0.0013 0 0 10 0
0.5680 0.1979 -0.0013 0 0 10 0
0.5580 0.1990 -0.0027 0 0 10 0
0.5580 0.1990 -0.0027 0 0 10 0
0.5360 0.1990 -0.0014 0 0 10 0
0.5280 0.1978 -0.0002 0 0 10 0
0.5420 0.1978 -0.0002 0 0 10 0
0.5580 0.1980 -0.0006 0 0 10 0
0.5580 0.1980 -0.0006 0 0 10 0
0.5600 0.1979 0.0003 0 0 10 0
0.5380 0.1979 0.0003 0 0 10 0
0.5420 0.1978 0.0002 0 0 10 0
0.5620 0.1973 0.0022 0 0 10 0
0.5340 0.1973 0.0022 0 0 10 0
0.5520 0.1968 0.0012 0 0 10 0
0.5520 0.1968 0.0012 0 0 10 0
0.5680 0.1961 0.0022 0 0 10 0
0.5680 0.1961 0.0022 0 0 10 0
0.5620 0.1956 0.0002 0 0 10 0
0.5760 0.1952 0.0004 0 0 10 0
0.5720 0.1949 0.0037 0 0 10 0
0.5720 0.1949 0.0037 0 0 10 0
0.5740 0.1947 0.0037 0 0 10 0
0.5660 0.1940 0.0051 0 0 10 0
0.5660 0.1940 0.0051 0 0 10 0
0.5520 0.1935 0.0054 0 0 10 0
0.5640 0.1929 0.0054 0 0 10 0
0.5500 0.1922 0.0032 0 0 10 0
0.5700 0.1912 0.0033 0 0 10 0
0.5700 0.1912 0.0033 0 0 0 0
0.5440 0.1903 0.0049 0 0 0 10
0.5380 0.1900 0.0039 0 0 0 10
0.5380 0.1900 0.0039 0 0 0 10
0.5460 0.1894 0.0036 0 0 0 0
0.5480 0.1874 0.0029 0 0 10 0
0.5360 0.1864 0.0026 0 0 10 0
0.5440 0.1860 0.0027 0 0 10 0
0.5580 0.1855 0.0027 0 0 10 0
0.5640 0.1845 -0.0021 0 0 10 0
0.5640 0.1845 -0.0021 0 0 10 0
0.5520 0.1840 0.0002 0 0 10 0
0.5420 0.1840 0.0003 0 0 10 0
0.5440 0.1843 0.0005 0 0 10 0
0.5440 0.1843 0.0005 0 0 10 0
0.5440 0.1848 0.0005 0 0 10 0
0.5560 0.1849 0.0027 0 0 10 0
0.5480 0.1852 0.0021 0 0 10 0
0.5460 0.1847 0.0011 0 0 10 0
0.5600 0.1842 0.0011 0 0 10 0
0.5600 0.1840 0.0020 0 0 10 0
0.5600 0.1840 0.0020 0 0 10 0
0.5760 0.1832 0.0014 0 0 10 0
0.5760 0.1832 0.0014 0 0 10 0
0.5680 0.1829 0.0014 0 0 10 0
0.5780 0.1825 0.0031 0 0 10 0
0.5400 0.1822 0.0033 0 0 10 0
0.5400 0.1822 0.0033 0 0 10 0
0.5500 0.1815 0.0020 0 0 10 0
0.5420 0.1810 0.0021 0 0 10 0
0.5440 0.1806 -0.0007 0 0 10 0
0.5520 0.1806 -0.0001 0 0 10 0
0.5520 0.1806 -0.0001 0 0 10 0
0.5540 0.1806 -0.0002 0 0 10 0
0.5840 0.1795 0.0006 0 0 10 0
0.5600 0.1794 0.0007 0 0 10 0
0.5720 0.1793 -0.0017 0 0 10 0
0.5580 0.1791 -0.0011 0 0 10 0
0.5580 0.1784 -0.0008 0 0 10 0
0.5400 0.1779 -0.0015 0 0 10 0
0.5740 0.1776 -0.0009 0 0 10 0
0.5680 0.1776 -0.0018 0 0 10 0
0.5680 0.1776 -0.0018 0 0 10 0
0.5860 0.1776 -0.0007 0 0 10 0
0.5660 0.1779 -0.0016 0 0 10 0
0.5580 0.1773 -0.0004 0 0 10 0
0.5740 0.1765 0.0002 0 0 10 0
0.5600 0.1762 -0.0003 0 0 10 0
0.5640 0.1760 -0.0002 0 0 10 0
0.5640 0.1760 -0.0002 0 0 10 0
0.5680 0.1757 0.0002 0 0 10 0
0.5580 0.1752 0.0002 0 0 10 0
0.5440 0.1748 -0.0005 0 0 10 0
0.5600 0.1743 -0.0008 0 0 10 0
0.5720 0.1739 -0.0018 0 0 10 0
0.5720 0.1734 -0.0019 0 0 10 0
0.5580 0.1729 -0.0034 0 0 10 0
0.5580 0.1729 -0.0034 0 0 10 0
0.5580 0.1723 -0.0034 0 0 10 0
0.5660 0.1718 -0.0038 0 0 10 0
0.5620 0.1708 -0.0045 0 0 10 0
0.5540 0.1706 -0.0047 0 0 10 0
0.5700 0.1706 0.0036 0 0 10 0
0.6020 0.1709 0.0031 0 0 10 0
0.6020 0.1709 0.0031 0 0 10 0
0.5740 0.1702 0.0029 0 0 10 0
0.5720 0.1697 0.0021 0 0 10 0
0.5740 0.1693 0.0023 0 0 10 0
0.5920 0.1693 0.0045 0 0 10 0
0.5920 0.1693 0.0045 0 0 10 0
0.5900 0.1695 0.0047 0 0 10 0
0.5780 0.1682 0.0036 0 0 10 0
0.6000 0.1671 0.0029 0 0 10 0
0.6020 0.1666 0.0034 0 0 10 0
0.6020 0.1666 0.0034 0 0 10 0
0.5760 0.1664 0.0084 0 0 10 0
0.5780 0.1658 0.0053 0 0 10 0
0.5880 0.1655 0.0055 0 0 10 0
0.5900 0.1656 0.0061 0 0 10 0
0.5680 0.1657 0.0044 0 0 10 0
0.5680 0.1657 0.0044 0 0 10 0
0.5700 0.1653 0.0031 0 0 10 0
0.5720 0.1647 0.0031 0 0 10 0
0.5700 0.1635 0.0027 0 0 10 0
0.5820 0.1631 0.0033 0 0 10 0
0.5660 0.1631 0.0049 0 0 10 0
0.5660 0.1631 0.0049 0 0 10 0
0.5820 0.1627 0.0053 0 0 10 0
0.5820 0.1627 0.0041 0 0 10 0
0.5740 0.1623 0.0037 0 0 10 0
0.5680 0.1615 0.0051 0 0 10 0
0.5680 0.1615 0.0051 0 0 10 0
0.5680 0.1611 0.0063 0 0 10 0
0.5840 0.1609 0.0067 0 0 10 0
0.5960 0.1607 0.0061 0 0 10 0
0.5740 0.1600 0.0066 0 0 10 0
0.5960 0.1597 0.0078 0 0 10 0
0.5780 0.1591 0.0070 0 0 10 0
0.5780 0.1585 0.0064 0 0 10 0
0.5800 0.1582 0.0065 0 0 10 0
0.5880 0.1577 0.0074 0 0 10 0
0.5760 0.1578 0.0080 0 0 10 0
0.5760 0.1578 0.0080 0 0 10 0
0.5920 0.1576 0.0063 0 0 10 0
0.5820 0.1575 0.0059 0 0 10 0
0.5740 0.1569 0.0082 0 0 10 0
0.5760 0.1560 0.0093 0 0 10 0
0.5660 0.1556 0.0088 0 0 10 0
0.5820 0.1552 0.0087 0 0 10 0
0.5820 0.1552 0.0087 0 0 10 0
0.5660 0.1546 0.0082 0 0 10 0
0.5860 0.1540 0.0084 0 0 10 0
0.5940 0.1538 0.0086 0 0 10 0
0.5940 0.1538 0.0086 0 0 10 0
0.5800 0.1539 0.0103 0 0 10 0
0.5900 0.1532 0.0106 0 0 10 0
0.5780 0.1527 0.0084 0 0 10 0
0.5820 0.1519 0.0083 0 0 10 0
0.5800 0.1513 0.0116 0 0 10 0
0.5800 0.1513 0.0116 0 0 10 0
0.5760 0.1507 0.0114 0 0 10 0
0.5780 0.1500 0.0094 0 0 10 0
0.5900 0.1496 0.0096 0 0 10 0
0.5700 0.1489 0.0099 0 0 10 0
0.5700 0.1489 0.0099 0 0 10 0
0.5780 0.1482 0.0053 0 0 10 0
0.5740 0.1477 0.0051 0 0 10 0
0.5980 0.1474 0.0042 0 0 10 0
0.5920 0.1466 0.0054 0 0 10 0
0.5900 0.1466 0.0054 0 0 10 0
0.5800 0.1460 0.0056 0 0 10 0
0.5960 0.1447 0.0063 0 0 10 0
0.5900 0.1441 0.0069 0 0 10 0
0.5760 0.1435 0.0036 0 0 10 0
0.5760 0.1435 0.0036 0 0 10 0
0.5820 0.1432 0.0036 0 0 10 0
0.5700 0.1426 0.0036 0 0 10 0
0.5660 0.1426 0.0040 0 0 10 0
0.5980 0.1424 0.0036 0 0 10 0
0.5880 0.1424 0.0014 0 0 10 0
0.5880 0.1424 0.0014 0 0 10 0
0.5840 0.1416 0.0025 0 0 10 0
0.6140 0.1416 0.0025 0 0 10 0
0.5840 0.1411 0.0039 0 0 10 0
0.6140 0.1412 0.0035 0 0 10 0
0.5940 0.1410 0.0037 0 0 10 0
0.5940 0.1407 0.0030 0 0 10 0
0.5940 0.1407 0.0030 0 0 10 0
0.5980 0.1400 0.0054 0 0 10 0
0.6060 0.1398 0.0050 0 0 10 0
0.5740 0.1391 0.0045 0 0 10 0
0.5740 0.1391 0.0045 0 0 10 0
0.6100 0.1388 0.0053 0 0 10 0
0.5860 0.1386 0.0063 0 0 10 0
0.5920 0.1384 0.0026 0 0 10 0
0.5960 0.1381 0.0027 0 0 10 0
0.5840 0.1376 0.0032 0 0 10 0
0.5820 0.1372 0.0031 0 0 10 0
0.5940 0.1369 0.0027 0 0 10 0
0.5860 0.1363 0.0031 0 0 10 0
0.5860 0.1363 0.0031 0 0 10 0
0.5960 0.1354 0.0051 0 0 10 0
0.6000 0.1352 0.0074 0 0 10 0
0.5960 0.1347 0.0074 0 0 10 0
0.6020 0.1342 0.0083 0 0 10 0
0.6000 0.1337 0.0089 0 0 10 0
0.6000 0.1337 0.0089 0 0 10 0
0.5940 0.1330 0.0074 0 0 10 0
0.6020 0.1330 0.0079 0 0 10 0
0.5960 0.1330 0.0087 0 0 10 0
0.5960 0.1324 0.0069 0 0 10 0
0.5960 0.1324 0.0069 0 0 10 0
0.6120 0.1320 0.0068 0 0 10 0
0.5840 0.1317 0.0088 0 0 10 0
0.5720 0.1315 0.0084 0 0 10 0
0.5720 0.1315 0.0084 0 0 10 0
0.6220 0.1311 0.0081 0 0 10 0
0.6220 0.1311 0.0081 0 0 10 0
0.6240 0.1310 0.0081 0 0 10 0
0.6220 0.1305 0.0075 0 0 10 0
0.6080 0.1304 0.0086 0 0 10 0
0.6200 0.1298 0.0084 0 0 10 0
0.6200 0.1298 0.0084 0 0 10 0
0.5960 0.1291 0.0082 0 0 10 0
0.5960 0.1291 0.0082 0 0 10 0
0.6080 0.1290 0.0061 0 0 10 0
0.5980 0.1284 0.0069 0 0 10 0
0.6040 0.1276 0.0077 0 0 10 0
0.6040 0.1276 0.0077 0 0 10 0
0.6320 0.1261 0.0156 0 0 10 0
0.6020 0.1257 0.0139 0 0 10 0
0.5980 0.1257 0.0135 0 0 10 0
0.5980 0.1259 0.0113 0 0 10 0
0.6000 0.1258 0.0103 0 0 10 0
0.6000 0.1258 0.0103 0 0 10 0
0.6040 0.1253 0.0096 0 0 10 0
0.6040 0.1240 0.0072 0 0 10 0
0.6120 0.1238 0.0079 0 0 10 0
0.6120 0.1238 0.0079 0 0 10 0
0.6280 0.1235 0.0093 0 0 10 0
0.6120 0.1234 0.0100 0 0 10 0
0.6100 0.1229 0.0102 0 0 10 0
0.6000 0.1221 0.0112 0 0 10 0
0.5860 0.1215 0.0114 0 0 10 0
0.6060 0.1208 0.0105 0 0 10 0
0.5960 0.1204 0.0112 0 0 10 0
0.5900 0.1205 0.0113 0 0 10 0
0.5900 0.1205 0.0113 0 0 10 0
0.5960 0.1207 0.0115 0 0 10 0
0.6220 0.1202 0.0112 0 0 10 0
0.6100 0.1196 0.0115 0 0 10 0
0.6100 0.1196 0.0115 0 0 10 0
0.6280 0.1191 0.0118 0 0 10 0
0.6020 0.1185 0.0103 0 0 10 0
0.6180 0.1183 0.0102 0 0 10 0
0.6200 0.1177 0.0108 0 0 10 0
0.5940 0.1175 0.0085 0 0 10 0
0.6200 0.1170 0.0047 0 0 10 0
0.6100 0.1170 0.0047 0 0 10 0
0.5900 0.1164 0.0055 0 0 10 0
0.6060 0.1157 0.0050 0 0 10 0
0.6120 0.1153 0.0052 0 0 10 0
0.6160 0.1148 0.0065 0 0 10 0
0.6260 0.1147 0.0076 0 0 10 0
0.6060 0.1150 0.0068 0 0 10 0
0.6020 0.1150 0.0068 0 0 10 0
0.6340 0.1149 0.0075 0 0 10 0
0.6060 0.1140 0.0084 0 0 10 0
0.6220 0.1134 0.0104 0 0 10 0
0.6180 0.1131 0.0113 0 0 10 0
0.6180 0.1131 0.0113 0 0 10 0
0.6120 0.1128 0.0090 0 0 10 0
0.6040 0.1127 0.0052 0 0 10 0
0.6120 0.1126 0.0050 0 0 10 0
0.6080 0.1119 0.0079 0 0 10 0
0.6080 0.1109 0.0075 0 0 10 0
0.6080 0.1109 0.0075 0 0 10 0
0.6120 0.1098 0.0067 0 0 10 0
0.6140 0.1089 0.0065 0 0 10 0
0.5980 0.1082 0.0071 0 0 10 0
0.5980 0.1082 0.0071 0 0 10 0
0.6120 0.1079 0.0074 0 0 10 0
0.6180 0.1076 0.0072 0 0 10 0
0.6240 0.1072 0.0084 0 0 10 0
0.6180 0.1069 0.0081 0 0 10 0
0.6080 0.1065 0.0074 0 0 10 0
0.6080 0.1065 0.0074 0 0 10 0
0.6120 0.1062 0.0080 0 0 10 0
0.5980 0.1061 0.0082 0 0 10 0
0.6120 0.1056 0.0069 0 0 10 0
0.6200 0.1050 0.0073 0 0 10 0
0.6200 0.1050 0.0073 0 0 10 0
0.6180 0.1048 0.0082 0 0 10 0
0.6000 0.1044 0.0082 0 0 10 0
0.6200 0.1038 0.0059 0 0 10 0
0.6160 0.1032 0.0059 0 0 10 0
0.6280 0.1024 0.0049 0 0 10 0
0.6100 0.1021 0.0053 0 0 10 0
0.6100 0.1021 0.0053 0 0 10 0
0.6100 0.1006 0.0052 0 0 10 0
0.6100 0.1006 0.0052 0 0 10 0
0.6280 0.0999 0.0034 0 0 10 0
0.6060 0.0998 0.0027 0 0 10 0
0.6080 0.0994 0.0031 0 0 10 0
0.6080 0.0994 0.0031 0 0 10 0
0.6160 0.0987 0.0027 0 0 10 0
0.6160 0.0987 0.0027 0 0 0 0
0.6200 0.0961 0.0026 0 0 10 0
0.6420 0.0953 0.0006 0 0 10 0
0.6520 0.0949 -0.0005 0 0 10 0
0.6280 0.0949 -0.0006 0 0 10 0
0.6380 0.0947 -0.0013 0 0 10 0
0.6320 0.0945 -0.0044 0 0 10 0
0.6200 0.0944 -0.0044 0 0 10 0
0.6200 0.0944 -0.0044 0 0 10 0
0.6180 0.0940 -0.0046 0 0 10 0
0.6180 0.0940 -0.0046 0 0 10 0
0.6260 0.0943 -0.0039 0 0 10 0
0.6220 0.0947 -0.0038 0 0 10 0
0.6160 0.0945 -0.0048 0 0 10 0
0.6160 0.0945 -0.0048 0 0 10 0
0.6320 0.0942 -0.0048 0 0 10 0
0.6360 0.0933 -0.0046 0 0 10 0
0.6260 0.0929 -0.0051 0 0 10 0
0.6260 0.0929 -0.0051 0 0 10 0
0.6220 0.0924 -0.0046 0 0 10 0
0.6320 0.0924 -0.0044 0 0 10 0
0.6320 0.0924 -0.0044 0 0 10 0
0.6240 0.0922 -0.0052 0 0 10 0
0.6100 0.0926 -0.0052 0 0 10 0
0.6140 0.0927 -0.0058 0 0 10 0
0.6140 0.0927 -0.0058 0 0 10 0
0.6200 0.0924 -0.0077 0 0 10 0
0.6180 0.0920 -0.0082 0 0 10 0
0.6220 0.0911 -0.0080 0 0 10 0
0.6120 0.0905 -0.0082 0 0 10 0
0.6280 0.0900 -0.0096 0 0 10 0
0.6280 0.0900 -0.0096 0 0 10 0
0.6180 0.0892 -0.0095 0 0 10 0
0.6100 0.0881 -0.0100 0 0 10 0
0.6220 0.0882 -0.0094 0 0 10 0
0.6220 0.0882 -0.0094 0 0 10 0
0.6160 0.0878 -0.0110 0 0 10 0
0.6220 0.0872 -0.0099 0 0 10 0
0.6120 0.0870 -0.0094 0 0 10 0
0.6100 0.0868 -0.0081 0 0 10 0
0.5960 0.0871 -0.0107 0 0 10 0
0.5960 0.0871 -0.0107 0 0 10 0
0.6160 0.0864 -0.0102 0 0 10 0
0.6220 0.0857 -0.0107 0 0 10 0
0.6220 0.0850 -0.0104 0 0 10 0
0.6380 0.0847 -0.0099 0 0 10 0
0.6380 0.0847 -0.0099 0 0 10 0
0.6240 0.0842 -0.0100 0 0 10 0
0.6200 0.0839 -0.0120 0 0 10 0
0.6240 0.0840 -0.0119 0 0 10 0
0.6260 0.0839 -0.0115 0 0 10 0
0.6280 0.0834 -0.0116 0 0 10 0
0.6280 0.0834 -0.0116 0 0 10 0
0.6240 0.0827 -0.0112 0 0 10 0
0.6440 0.0815 -0.0084 0 0 10 0
0.6280 0.0805 -0.0079 0 0 10 0
0.6280 0.0805 -0.0079 0 0 10 0
0.6320 0.0799 -0.0080 0 0 10 0
0.6360 0.0797 -0.0068 0 0 10 0
0.6160 0.0786 -0.0098 0 0 10 0
0.6260 0.0782 -0.0097 0 0 10 0
0.6260 0.0782 -0.0097 0 0 10 0
0.6380 0.0781 -0.0081 0 0 10 0
0.6360 0.0780 -0.0068 0 0 10 0
0.6360 0.0780 -0.0068 0 0 10 0
0.6120 0.0777 -0.0064 0 0 0 0
0.6560 0.0756 -0.0002 0 0 0 10
0.6320 0.0741 -0.0012 0 0 0 10
0.6220 0.0715 -0.0078 0 0 0 10
0.6420 0.0715 -0.0078 0 0 0 0
0.6280 0.0724 -0.0028 0 0 10 0
0.6340 0.0719 -0.0074 0 0 10 0
0.6340 0.0732 -0.0047 0 0 10 0
0.6440 0.0735 -0.0056 0 0 10 0
0.6440 0.0735 -0.0072 0 0 10 0
0.6480 0.0734 -0.0082 0 0 10 0
0.6480 0.0734 -0.0082 0 0 10 0
0.6440 0.0732 -0.0066 0 0 10 0
0.6440 0.0733 -0.0063 0 0 10 0
0.6360 0.0732 -0.0058 0 0 10 0
0.6520 0.0731 -0.0056 0 0 10 0
0.6340 0.0734 -0.0052 0 0 10 0
0.6460 0.0730 -0.0061 0 0 10 0
0.6360 0.0728 -0.0058 0 0 10 0
0.6380 0.0719 -0.0033 0 0 10 0
0.6320 0.0711 -0.0028 0 0 10 0
0.6320 0.0711 -0.0028 0 0 10 0
0.6420 0.0711 -0.0029 0 0 10 0
0.6460 0.0706 -0.0023 0 0 10 0
0.6540 0.0706 -0.0005 0 0 10 0
0.6360 0.0707 -0.0005 0 0 10 0
0.6360 0.0707 -0.0005 0 0 10 0
0.6240 0.0704 -0.0011 0 0 10 0
0.6320 0.0698 -0.0002 0 0 10 0
0.6200 0.0690 -0.0011 0 0 10 0
0.6220 0.0686 -0.0013 0 0 10 0
0.6440 0.0687 -0.0014 0 0 10 0
0.6480 0.0686 0.0003 0 0 10 0
0.6480 0.0686 0.0003 0 0 10 0
0.6500 0.0685 0.0003 0 0 10 0
0.6200 0.0684 -0.0008 0 0 10 0
0.6320 0.0677 -0.0005 0 0 10 0
0.6260 0.0668 0.0015 0 0 10 0
0.6480 0.0660 0.0014 0 0 10 0
0.6480 0.0660 0.0014 0 0 10 0
0.6180 0.0657 0.0017 0 0 10 0
0.6420 0.0654 0.0009 0 0 10 0
0.6360 0.0651 0.0025 0 0 10 0
0.6240 0.0649 0.0023 0 0 10 0
0.6240 0.0649 0.0023 0 0 0 0
0.6340 0.0616 0.0047 0 0 10 0
0.6540 0.0609 0.0048 0 0 10 0
0.6620 0.0600 0.0032 0 0 10 0
0.6360 0.0599 0.0031 0 0 10 0
0.6480 0.0600 0.0034 0 0 10 0
0.6440 0.0598 0.0034 0 0 0 0
0.6400 0.0596 0.0038 0 0 10 0
0.6380 0.0595 0.0024 0 0 10 0
0.6220 0.0593 0.0033 0 0 10 0
0.6220 0.0593 0.0033 0 0 10 0
0.6600 0.0585 0.0021 0 0 10 0
0.6600 0.0585 0.0021 0 0 10 0
0.6420 0.0585 0.0024 0 0 10 0
0.6540 0.0585 0.0028 0 0 10 0
0.6420 0.0588 0.0027 0 0 10 0
0.6420 0.0588 0.0027 0 0 10 0
0.6440 0.0590 0.0009 0 0 10 0
0.6420 0.0588 0.0014 0 0 10 0
0.6260 0.0586 0.0030 0 0 10 0
0.6380 0.0585 0.0029 0 0 10 0
0.6460 0.0585 0.0028 0 0 10 0
0.6280 0.0585 0.0036 0 0 10 0
0.6480 0.0585 0.0040 0 0 10 0
0.6480 0.0585 0.0040 0 0 10 0
0.6460 0.0577 0.0038 0 0 10 0
0.6560 0.0574 0.0037 0 0 10 0
0.6480 0.0569 0.0054 0 0 10 0
0.6480 0.0569 0.0054 0 0 10 0
0.6520 0.0565 0.0052 0 0 10 0
0.6620 0.0564 0.0047 0 0 10 0
0.6620 0.0564 0.0049 0 0 10 0
0.6620 0.0564 0.0049 0 0 10 0
0.6700 0.0554 0.0053 0 0 10 0
0.6520 0.0549 0.0051 0 0 10 0
0.6520 0.0549 0.0051 0 0 10 0
0.6500 0.0537 0.0047 0 0 10 0
0.6620 0.0531 0.0048 0 0 10 0
0.6720 0.0526 0.0052 0 0 10 0
0.6720 0.0526 0.0052 0 0 10 0
0.6300 0.0514 0.0064 0 0 10 0
0.6520 0.0508 0.0053 0 0 10 0
0.6520 0.0508 0.0053 0 0 10 0
0.6620 0.0505 0.0032 0 0 10 0
0.6620 0.0501 0.0031 0 0 10 0
0.6420 0.0498 0.0025 0 0 10 0
0.6420 0.0498 0.0025 0 0 10 0
0.6640 0.0494 0.0034 0 0 10 0
0.6580 0.0496 0.0033 0 0 10 0
0.6700 0.0494 0.0040 0 0 10 0
0.6620 0.0490 0.0066 0 0 10 0
0.6660 0.0486 0.0068 0 0 10 0
0.6660 0.0481 0.0100 0 0 10 0
0.6660 0.0481 0.0100 0 0 10 0
0.6500 0.0475 0.0105 0 0 10 0
0.6700 0.0470 0.0104 0 0 10 0
0.6620 0.0460 0.0109 0 0 10 0
0.6620 0.0460 0.0109 0 0 10 0
0.6440 0.0452 0.0113 0 0 10 0
0.6440 0.0452 0.0113 0 0 10 0
0.6600 0.0450 0.0108 0 0 10 0
0.6580 0.0440 0.0094 0 0 10 0
0.6580 0.0440 0.0094 0 0 10 0
0.6680 0.0433 0.0089 0 0 10 0
0.6620 0.0429 0.0080 0 0 10 0
0.6660 0.0427 0.0065 0 0 10 0
0.6660 0.0427 0.0065 0 0 10 0
0.6720 0.0423 0.0070 0 0 10 0
0.6740 0.0410 0.0052 0 0 10 0
0.6580 0.0410 0.0052 0 0 10 0
0.6640 0.0405 0.0048 0 0 10 0
0.6560 0.0395 0.0053 0 0 10 0
0.6560 0.0395 0.0053 0 0 10 0
0.6380 0.0392 0.0015 0 0 10 0
0.6360 0.0386 0.0016 0 0 10 0
0.6360 0.0386 0.0016 0 0 10 0
0.6720 0.0382 0.0017 0 0 10 0
0.6780 0.0380 0.0011 0 0 10 0
0.6600 0.0376 0.0008 0 0 10 0
0.6720 0.0378 0.0010 0 0 10 0
0.6680 0.0377 0.0007 0 0 10 0
0.6680 0.0377 0.0007 0 0 10 0
0.6740 0.0369 0.0003 0 0 10 0
0.6600 0.0357 0.0006 0 0 10 0
0.6600 0.0357 0.0006 0 0 10 0
0.6740 0.0357 0.0002 0 0 10 0
0.6480 0.0359 0.0008 0 0 10 0
0.6520 0.0359 0.0008 0 0 10 0
0.6700 0.0358 0.0025 0 0 10 0
0.6900 0.0355 0.0027 0 0 10 0
0.6900 0.0351 0.0042 0 0 10 0
0.6800 0.0340 0.0040 0 0 10 0
0.6800 0.0340 0.0040 0 0 10 0
0.6640 0.0334 0.0026 0 0 10 0
0.6520 0.0332 0.0030 0 0 10 0
0.6680 0.0339 0.0047 0 0 10 0
0.6680 0.0339 0.0047 0 0 10 0
0.6840 0.0342 0.0050 0 0 10 0
0.6720 0.0334 0.0028 0 0 10 0
0.6640 0.0330 0.0029 0 0 10 0
0.6840 0.0325 0.0031 0 0 10 0
0.6840 0.0325 0.0031 0 0 10 0
0.6440 0.0318 0.0037 0 0 10 0
0.6660 0.0313 0.0051 0 0 10 0
0.6840 0.0305 0.0023 0 0 10 0
0.6840 0.0305 0.0023 0 0 10 0
0.6960 0.0295 0.0039 0 0 10 0
0.6660 0.0295 0.0039 0 0 10 0
0.6660 0.0287 0.0034 0 0 10 0
0.6920 0.0286 0.0055 0 0 10 0
0.6920 0.0286 0.0055 0 0 10 0
0.6760 0.0285 0.0056 0 0 10 0
0.6620 0.0282 0.0054 0 0 10 0
0.6680 0.0279 0.0049 0 0 10 0
0.6540 0.0267 0.0039 0 0 10 0
0.6540 0.0267 0.0039 0 0 10 0
0.6660 0.0257 0.0043 0 0 10 0
0.6560 0.0250 0.0025 0 0 10 0
0.6560 0.0250 0.0025 0 0 10 0
0.6740 0.0250 0.0025 0 0 10 0
0.6840 0.0246 0.0036 0 0 10 0
0.7100 0.0242 0.0029 0 0 10 0
0.6980 0.0238 0.0014 0 0 10 0
0.6720 0.0230 0.0016 0 0 10 0
0.6820 0.0224 0.0027 0 0 10 0
0.6820 0.0220 0.0031 0 0 10 0
0.6620 0.0220 0.0031 0 0 10 0
0.6760 0.0221 0.0035 0 0 10 0
0.6760 0.0221 0.0056 0 0 10 0
0.6640 0.0220 0.0017 0 0 10 0
0.6640 0.0213 0.0022 0 0 10 0
0.6640 0.0213 0.0022 0 0 10 0
0.6940 0.0203 0.0048 0 0 10 0
0.6820 0.0196 0.0050 0 0 10 0
0.6800 0.0191 0.0034 0 0 10 0
0.6980 0.0193 0.0028 0 0 10 0
0.6980 0.0193 0.0028 0 0 10 0
0.7020 0.0188 0.0025 0 0 10 0
0.6980 0.0185 0.0031 0 0 10 0
0.6740 0.0184 0.0028 0 0 10 0
0.6860 0.0184 0.0032 0 0 10 0
0.6820 0.0185 0.0051 0 0 10 0
0.6760 0.0185 0.0051 0 0 10 0
0.7020 0.0181 0.0046 0 0 10 0
0.6960 0.0171 0.0061 0 0 10 0
0.6960 0.0161 0.0050 0 0 10 0
0.6920 0.0156 0.0014 0 0 10 0
0.6940 0.0154 0.0001 0 0 10 0
0.6940 0.0154 0.0001 0 0 10 0
0.6880 0.0152 -0.0007 0 0 10 0
0.6940 0.0155 -0.0006 0 0 10 0
0.7040 0.0153 -0.0011 0 0 10 0
0.7020 0.0151 -0.0005 0 0 10 0
0.6860 0.0148 0.0015 0 0 10 0
0.6860 0.0146 0.0016 0 0 10 0
0.6960 0.0146 0.0016 0 0 10 0
0.6980 0.0146 0.0023 0 0 10 0
0.7100 0.0148 0.0028 0 0 10 0
0.7000 0.0141 0.0045 0 0 10 0
0.7100 0.0136 0.0043 0 0 10 0
0.7100 0.0136 0.0043 0 0 10 0
0.6880 0.0126 0.0021 0 0 0 0
0.6920 0.0103 0.0019 0 0 10 0
0.6840 0.0090 0.0014 0 0 10 0
0.7140 0.0077 0.0034 0 0 10 0
0.6920 0.0077 0.0036 0 0 0 0
0.7180 0.0072 -0.0003 0 0 10 0
0.7240 0.0064 -0.0051 0 0 10 0
0.7220 0.0061 -0.0083 0 0 10 0
0.7340 0.0058 -0.0079 0 0 10 0
0.7400 0.0051 -0.0061 0 0 0 0
0.7040 0.0053 -0.0052 0 0 10 0
