0.5680 0.1678 0.0073 0 0 10 0
0.5560 0.1674 0.0058 0 0 10 0
0.5540 0.1674 0.0051 0 0 10 0
0.5580 0.1676 0.0053 0 0 10 0
0.5700 0.1677 0.0069 0 0 10 0
0.5580 0.1677 0.0070 0 0 10 0
0.5780 0.1674 0.0043 0 0 10 0
0.5680 0.1675 0.0042 0 0 10 0
0.5720 0.1674 0.0049 0 0 10 0
0.5900 0.1669 0.0046 0 0 10 0
0.5500 0.1667 0.0047 0 0 10 0
0.5740 0.1665 0.0063 0 0 10 0
0.5740 0.1665 0.0063 0 0 10 0
0.5800 0.1666 0.0061 0 0 10 0
0.5780 0.1662 0.0048 0 0 10 0
0.5720 0.1655 0.0060 0 0 10 0
0.5720 0.1655 0.0060 0 0 10 0
0.5620 0.1648 0.0061 0 0 10 0
0.5800 0.1643 0.0072 0 0 10 0
0.5800 0.1632 0.0068 0 0 10 0
0.5620 0.1628 0.0063 0 0 10 0
0.5620 0.1629 0.0063 0 0 10 0
0.5480 0.1627 0.0042 0 0 10 0
0.5480 0.1627 0.0042 0 0 10 0
0.5680 0.1626 0.0041 0 0 10 0
0.5660 0.1621 0.0041 0 0 10 0
0.5760 0.1612 0.0010 0 0 10 0
0.5800 0.1598 0.0011 0 0 10 0
0.5540 0.1595 0.0045 0 0 10 0
0.5420 0.1595 0.0045 0 0 10 0
0.5600 0.1594 0.0036 0 0 10 0
0.5600 0.1594 0.0036 0 0 10 0
0.5380 0.1588 0.0034 0 0 10 0
0.5580 0.1574 0.0029 0 0 10 0
0.5860 0.1569 0.0018 0 0 10 0
0.5700 0.1569 0.0018 0 0 10 0
0.5760 0.1568 0.0004 0 0 10 0
0.5760 0.1568 0.0004 0 0 10 0
0.5620 0.1567 -0.0006 0 0 10 0
0.5880 0.1561 0.0011 0 0 10 0
0.5880 0.1561 0.0011 0 0 10 0
0.5700 0.1553 0.0023 0 0 10 0
0.5760 0.1551 0.0018 0 0 10 0
0.5760 0.1551 0.0018 0 0 10 0
0.5960 0.1543 0.0011 0 0 10 0
0.6080 0.1539 0.0010 0 0 10 0
0.5920 0.1534 0.0007 0 0 10 0
0.5660 0.1536 0.0015 0 0 10 0
0.6020 0.1540 0.0033 0 0 10 0
0.5940 0.1540 0.0038 0 0 10 0
0.5740 0.1535 0.0030 0 0 10 0
0.5780 0.1526 0.0026 0 0 10 0
0.5780 0.1526 0.0026 0 0 10 0
0.5720 0.1519 0.0030 0 0 10 0
0.6060 0.1516 0.0025 0 0 10 0
0.5880 0.1515 0.0024 0 0 10 0
0.5940 0.1510 0.0037 0 0 10 0
0.5940 0.1510 0.0037 0 0 10 0
0.5900 0.1500 0.0037 0 0 10 0
0.5900 0.1497 0.0036 0 0 10 0
0.5900 0.1497 0.0036 0 0 10 0
0.5820 0.1489 0.0044 0 0 10 0
0.5940 0.1479 0.0038 0 0 10 0
0.5940 0.1479 0.0038 0 0 10 0
0.5840 0.1464 -0.0005 0 0 10 0
0.6080 0.1460 -0.0006 0 0 10 0
0.6080 0.1460 -0.0006 0 0 10 0
0.5860 0.1454 -0.0037 0 0 10 0
0.5860 0.1454 -0.0037 0 0 10 0
0.6040 0.1452 -0.0022 0 0 10 0
0.5860 0.1449 -0.0011 0 0 10 0
0.5800 0.1446 -0.0012 0 0 10 0
0.5860 0.1443 0.0005 0 0 10 0
0.5860 0.1443 0.0005 0 0 10 0
0.6040 0.1441 0.0009 0 0 10 0
0.6180 0.1443 0.0003 0 0 10 0
0.5900 0.1440 -0.0001 0 0 10 0
0.5820 0.1434 -0.0004 0 0 10 0
0.5820 0.1434 -0.0004 0 0 10 0
0.5800 0.1430 0.0002 0 0 10 0
0.6020 0.1425 0.0000 0 0 10 0
0.6060 0.1422 0.0025 0 0 10 0
0.5780 0.1420 0.0025 0 0 10 0
0.5780 0.1420 0.0025 0 0 10 0
0.5720 0.1416 0.0028 0 0 10 0
0.6020 0.1417 0.0055 0 0 10 0
0.5940 0.1413 0.0052 0 0 10 0
0.5940 0.1413 0.0052 0 0 10 0
0.5860 0.1399 0.0045 0 0 10 0
0.6000 0.1399 0.0045 0 0 10 0
0.5880 0.1394 0.0044 0 0 10 0
0.5960 0.1386 0.0044 0 0 10 0
0.6060 0.1383 0.0052 0 0 10 0
0.6060 0.1383 0.0052 0 0 10 0
0.6080 0.1384 0.0053 0 0 10 0
0.5880 0.1381 0.0066 0 0 10 0
0.6160 0.1375 0.0067 0 0 10 0
0.6000 0.1368 0.0049 0 0 10 0
0.6000 0.1368 0.0049 0 0 10 0
0.6080 0.1365 0.0051 0 0 10 0
0.6200 0.1362 0.0072 0 0 10 0
0.5900 0.1355 0.0066 0 0 10 0
0.6040 0.1350 0.0066 0 0 10 0
0.5900 0.1348 0.0084 0 0 10 0
0.5900 0.1348 0.0084 0 0 10 0
0.6020 0.1345 0.0080 0 0 10 0
0.5900 0.1341 0.0058 0 0 10 0
0.6080 0.1338 0.0064 0 0 10 0
0.5780 0.1331 0.0087 0 0 10 0
0.5780 0.1331 0.0087 0 0 10 0
0.6080 0.1323 0.0109 0 0 10 0
0.6080 0.1323 0.0109 0 0 10 0
0.5980 0.1316 0.0109 0 0 10 0
0.5920 0.1313 0.0122 0 0 10 0
0.5920 0.1313 0.0122 0 0 10 0
0.6040 0.1303 0.0110 0 0 10 0
0.6080 0.1294 0.0096 0 0 10 0
0.5920 0.1289 0.0111 0 0 10 0
0.5960 0.1281 0.0124 0 0 10 0
0.5960 0.1281 0.0124 0 0 10 0
0.6200 0.1281 0.0148 0 0 10 0
0.6200 0.1281 0.0148 0 0 10 0
0.6240 0.1279 0.0150 0 0 10 0
0.6060 0.1277 0.0143 0 0 10 0
0.6040 0.1271 0.0138 0 0 10 0
0.6000 0.1265 0.0147 0 0 10 0
0.6000 0.1265 0.0147 0 0 10 0
0.5900 0.1257 0.0111 0 0 10 0
0.5900 0.1257 0.0111 0 0 10 0
0.5880 0.1256 0.0102 0 0 10 0
0.6140 0.1257 0.0103 0 0 10 0
0.6260 0.1258 0.0101 0 0 10 0
0.6260 0.1258 0.0101 0 0 10 0
0.6100 0.1256 0.0087 0 0 10 0
0.6100 0.1245 0.0092 0 0 10 0
0.6000 0.1236 0.0100 0 0 10 0
0.6000 0.1236 0.0100 0 0 10 0
0.6020 0.1227 0.0101 0 0 10 0
0.6020 0.1218 0.0116 0 0 10 0
0.6020 0.1218 0.0116 0 0 10 0
0.5920 0.1212 0.0113 0 0 10 0
0.5940 0.1208 0.0110 0 0 10 0
0.6100 0.1201 0.0114 0 0 10 0
0.6120 0.1194 0.0124 0 0 10 0
0.6140 0.1194 0.0125 0 0 10 0
0.6240 0.1194 0.0117 0 0 10 0
0.6060 0.1193 0.0117 0 0 0 0
0.5800 0.1182 0.0116 0 0 0 -10
0.5920 0.1177 0.0109 0 0 0 -10
0.5920 0.1177 0.0109 0 0 0 -10
0.5920 0.1177 0.0109 0 0 0 0
0.6140 0.1153 0.0068 0 0 10 0
0.5840 0.1147 0.0007 0 0 10 0
0.6120 0.1146 -0.0014 0 0 10 0
0.5920 0.1147 -0.0020 0 0 10 0
0.6320 0.1145 -0.0002 0 0 10 0
0.6160 0.1142 -0.0019 0 0 10 0
0.6240 0.1138 -0.0014 0 0 10 0
0.6220 0.1140 0.0005 0 0 10 0
0.6100 0.1145 0.0013 0 0 10 0
0.6100 0.1146 0.0011 0 0 10 0
0.6240 0.1142 0.0016 0 0 10 0
0.6200 0.1136 0.0025 0 0 10 0
0.6200 0.1136 0.0025 0 0 10 0
0.6260 0.1131 0.0024 0 0 10 0
0.6160 0.1129 0.0015 0 0 10 0
0.6020 0.1131 0.0020 0 0 10 0
0.6020 0.1132 0.0018 0 0 10 0
0.6020 0.1132 0.0018 0 0 10 0
0.6020 0.1132 0.0022 0 0 10 0
0.6000 0.1128 0.0021 0 0 10 0
0.6060 0.1120 0.0038 0 0 10 0
0.6000 0.1111 0.0016 0 0 10 0
0.5980 0.1107 0.0013 0 0 10 0
0.6200 0.1107 0.0019 0 0 10 0
0.6200 0.1107 0.0019 0 0 10 0
0.6060 0.1108 0.0022 0 0 10 0
0.6140 0.1102 0.0005 0 0 10 0
0.6100 0.1096 0.0010 0 0 10 0
0.6100 0.1096 0.0010 0 0 10 0
0.6000 0.1091 0.0013 0 0 10 0
0.6340 0.1085 -0.0003 0 0 10 0
0.6200 0.1083 -0.0007 0 0 10 0
0.5940 0.1082 0.0022 0 0 10 0
0.5940 0.1079 0.0022 0 0 10 0
0.6340 0.1079 0.0022 0 0 10 0
0.6160 0.1079 0.0013 0 0 10 0
0.6080 0.1079 0.0013 0 0 10 0
0.6020 0.1077 0.0018 0 0 10 0
0.5980 0.1075 0.0002 0 0 10 0
0.5920 0.1069 0.0002 0 0 10 0
0.6000 0.1062 0.0006 0 0 10 0
0.6180 0.1059 0.0008 0 0 10 0
0.6220 0.1056 -0.0005 0 0 10 0
0.6220 0.1056 -0.0005 0 0 10 0
0.5940 0.1055 -0.0002 0 0 10 0
0.6080 0.1054 0.0009 0 0 10 0
0.6220 0.1051 0.0017 0 0 10 0
0.6220 0.1043 0.0026 0 0 10 0
0.6140 0.1036 0.0025 0 0 10 0
0.6140 0.1036 0.0025 0 0 10 0
0.6280 0.1032 0.0036 0 0 10 0
0.5940 0.1024 0.0014 0 0 10 0
0.6080 0.1020 0.0017 0 0 10 0
0.6080 0.1020 0.0017 0 0 10 0
0.6020 0.1016 0.0034 0 0 10 0
0.6100 0.1015 0.0036 0 0 10 0
0.6240 0.1010 0.0038 0 0 10 0
0.6080 0.1005 0.0052 0 0 10 0
0.6300 0.0994 0.0050 0 0 10 0
0.6300 0.0990 0.0051 0 0 10 0
0.6300 0.0990 0.0051 0 0 10 0
0.6000 0.0986 0.0052 0 0 10 0
0.6120 0.0979 0.0051 0 0 10 0
0.6240 0.0977 0.0052 0 0 10 0
0.6240 0.0977 0.0052 0 0 10 0
0.6060 0.0971 0.0030 0 0 10 0
0.5940 0.0970 0.0028 0 0 10 0
0.6140 0.0966 0.0030 0 0 10 0
0.6140 0.0966 0.0030 0 0 10 0
0.6100 0.0949 0.0008 0 0 10 0
0.6100 0.0949 0.0008 0 0 10 0
0.6020 0.0944 0.0039 0 0 10 0
0.6120 0.0940 0.0037 0 0 10 0
0.6300 0.0937 0.0025 0 0 10 0
0.6400 0.0939 0.0020 0 0 10 0
0.6400 0.0939 0.0020 0 0 10 0
0.6200 0.0937 0.0005 0 0 10 0
0.6040 0.0934 -0.0018 0 0 10 0
0.6040 0.0934 -0.0018 0 0 10 0
0.6180 0.0928 -0.0015 0 0 10 0
0.6260 0.0927 -0.0012 0 0 10 0
0.6260 0.0927 -0.0012 0 0 10 0
0.6240 0.0923 -0.0035 0 0 10 0
0.6280 0.0916 -0.0040 0 0 10 0
0.6420 0.0905 -0.0043 0 0 10 0
0.6400 0.0897 -0.0046 0 0 10 0
0.6340 0.0891 -0.0049 0 0 10 0
0.6340 0.0891 -0.0049 0 0 10 0
0.6220 0.0885 -0.0057 0 0 10 0
0.6380 0.0885 -0.0058 0 0 10 0
0.6380 0.0885 -0.0058 0 0 10 0
0.6360 0.0881 -0.0049 0 0 10 0
0.6360 0.0881 -0.0049 0 0 10 0
0.6220 0.0872 -0.0060 0 0 10 0
0.6300 0.0865 -0.0074 0 0 10 0
0.6460 0.0860 -0.0073 0 0 10 0
0.6460 0.0860 -0.0073 0 0 10 0
0.6300 0.0858 -0.0072 0 0 10 0
0.6480 0.0855 -0.0069 0 0 10 0
0.6100 0.0858 -0.0080 0 0 10 0
0.6400 0.0862 -0.0081 0 0 10 0
0.6400 0.0862 -0.0081 0 0 10 0
0.6400 0.0858 -0.0088 0 0 10 0
0.6400 0.0858 -0.0088 0 0 10 0
0.6200 0.0850 -0.0073 0 0 10 0
0.6180 0.0841 -0.0072 0 0 10 0
0.6360 0.0836 -0.0090 0 0 10 0
0.6300 0.0832 -0.0092 0 0 10 0
0.6300 0.0832 -0.0092 0 0 10 0
0.6420 0.0831 -0.0074 0 0 10 0
0.6400 0.0828 -0.0069 0 0 10 0
0.6220 0.0822 -0.0073 0 0 10 0
0.6220 0.0822 -0.0073 0 0 10 0
0.6400 0.0818 -0.0074 0 0 10 0
0.6400 0.0818 -0.0074 0 0 10 0
0.6420 0.0809 -0.0087 0 0 10 0
0.6120 0.0803 -0.0088 0 0 10 0
0.6300 0.0798 -0.0081 0 0 10 0
0.6340 0.0791 -0.0072 0 0 10 0
0.6100 0.0787 -0.0078 0 0 10 0
0.6280 0.0784 -0.0079 0 0 10 0
0.6120 0.0779 -0.0067 0 0 10 0
0.6160 0.0775 -0.0067 0 0 10 0
0.6240 0.0766 -0.0053 0 0 10 0
0.6240 0.0766 -0.0053 0 0 10 0
0.6240 0.0753 -0.0021 0 0 10 0
0.6200 0.0750 -0.0018 0 0 10 0
0.6320 0.0740 -0.0018 0 0 10 0
0.6320 0.0737 0.0000 0 0 10 0
0.6320 0.0737 0.0000 0 0 10 0
0.6460 0.0734 -0.0013 0 0 10 0
0.6260 0.0729 -0.0002 0 0 10 0
0.6160 0.0723 0.0004 0 0 10 0
0.6160 0.0723 0.0004 0 0 10 0
0.6080 0.0717 0.0014 0 0 10 0
0.6160 0.0708 0.0003 0 0 10 0
0.6360 0.0701 0.0013 0 0 10 0
0.6260 0.0697 0.0019 0 0 10 0
0.6360 0.0698 0.0020 0 0 10 0
0.6520 0.0701 0.0067 0 0 10 0
0.6520 0.0701 0.0067 0 0 10 0
0.6380 0.0701 0.0073 0 0 10 0
0.6160 0.0696 0.0065 0 0 10 0
0.6400 0.0691 0.0053 0 0 10 0
0.6400 0.0691 0.0053 0 0 10 0
0.6360 0.0683 0.0050 0 0 10 0
0.6280 0.0672 0.0055 0 0 10 0
0.6280 0.0675 0.0054 0 0 10 0
0.6340 0.0673 0.0051 0 0 10 0
0.6160 0.0671 0.0065 0 0 10 0
0.6160 0.0671 0.0065 0 0 10 0
0.6500 0.0673 0.0061 0 0 10 0
0.6220 0.0670 0.0055 0 0 10 0
0.6300 0.0662 0.0049 0 0 10 0
0.6140 0.0659 0.0049 0 0 10 0
0.6360 0.0654 0.0049 0 0 10 0
0.6360 0.0654 0.0049 0 0 10 0
0.6280 0.0649 0.0036 0 0 10 0
0.6280 0.0649 0.0036 0 0 10 0
0.6300 0.0645 0.0039 0 0 10 0
0.6460 0.0638 0.0027 0 0 10 0
0.6240 0.0632 0.0022 0 0 10 0
0.6180 0.0628 0.0029 0 0 10 0
0.6180 0.0624 0.0029 0 0 10 0
0.6200 0.0624 0.0029 0 0 10 0
0.6100 0.0624 0.0004 0 0 10 0
0.6300 0.0621 0.0014 0 0 10 0
0.6340 0.0613 0.0034 0 0 10 0
0.6180 0.0597 0.0018 0 0 10 0
0.6440 0.0586 0.0023 0 0 10 0
0.6440 0.0574 0.0033 0 0 10 0
0.6480 0.0574 0.0033 0 0 10 0
0.6480 0.0567 0.0043 0 0 10 0
0.6240 0.0566 0.0039 0 0 10 0
0.6540 0.0568 0.0048 0 0 10 0
0.6440 0.0572 0.0046 0 0 10 0
0.6480 0.0575 0.0040 0 0 10 0
0.6420 0.0573 0.0036 0 0 10 0
0.6420 0.0566 0.0045 0 0 10 0
0.6360 0.0559 0.0041 0 0 10 0
0.6140 0.0556 0.0044 0 0 10 0
0.6180 0.0555 0.0044 0 0 10 0
0.6420 0.0555 0.0069 0 0 10 0
0.6380 0.0552 0.0065 0 0 10 0
0.6480 0.0545 0.0069 0 0 10 0
0.6440 0.0538 0.0065 0 0 10 0
0.6420 0.0531 0.0069 0 0 10 0
0.6320 0.0530 0.0045 0 0 10 0
0.6320 0.0530 0.0045 0 0 10 0
0.6640 0.0513 0.0033 0 0 10 0
0.6480 0.0508 0.0028 0 0 10 0
0.6560 0.0506 0.0021 0 0 10 0
0.6560 0.0506 0.0021 0 0 10 0
0.6360 0.0508 0.0025 0 0 10 0
0.6140 0.0504 0.0028 0 0 10 0
0.6280 0.0496 0.0039 0 0 10 0
0.6440 0.0488 0.0037 0 0 10 0
0.6420 0.0483 0.0040 0 0 10 0
0.6560 0.0480 0.0043 0 0 10 0
0.6480 0.0485 0.0046 0 0 10 0
0.6480 0.0485 0.0046 0 0 10 0
0.6300 0.0485 0.0026 0 0 10 0
0.6400 0.0481 0.0041 0 0 10 0
0.6300 0.0478 0.0041 0 0 10 0
0.6580 0.0469 0.0021 0 0 10 0
0.6520 0.0461 0.0023 0 0 10 0
0.6600 0.0456 0.0039 0 0 10 0
0.6720 0.0451 0.0037 0 0 10 0
0.6560 0.0453 0.0040 0 0 10 0
0.6440 0.0455 0.0033 0 0 10 0
0.6640 0.0446 0.0031 0 0 10 0
0.6480 0.0442 0.0030 0 0 10 0
0.6500 0.0440 0.0029 0 0 10 0
0.6580 0.0440 0.0029 0 0 10 0
0.6560 0.0440 0.0029 0 0 10 0
0.6560 0.0440 0.0029 0 0 10 0
0.6780 0.0438 0.0030 0 0 10 0
0.6620 0.0435 0.0023 0 0 10 0
0.6640 0.0434 0.0038 0 0 10 0
0.6600 0.0436 0.0038 0 0 10 0
0.6600 0.0436 0.0038 0 0 10 0
0.6500 0.0430 0.0033 0 0 10 0
0.6600 0.0430 0.0033 0 0 10 0
0.6780 0.0427 0.0028 0 0 10 0
0.6600 0.0420 0.0027 0 0 10 0
0.6640 0.0417 0.0017 0 0 10 0
0.6780 0.0412 0.0017 0 0 10 0
0.6780 0.0412 0.0017 0 0 10 0
0.6720 0.0403 0.0020 0 0 10 0
0.6680 0.0395 0.0014 0 0 10 0
0.6800 0.0390 -0.0000 0 0 10 0
0.6580 0.0385 -0.0005 0 0 10 0
0.6520 0.0382 0.0006 0 0 10 0
0.6660 0.0379 0.0002 0 0 10 0
0.6620 0.0363 0.0001 0 0 10 0
0.6620 0.0357 0.0002 0 0 10 0
0.6620 0.0357 0.0002 0 0 10 0
0.6760 0.0350 -0.0045 0 0 10 0
0.6660 0.0337 -0.0047 0 0 10 0
0.6660 0.0337 -0.0047 0 0 10 0
0.6600 0.0335 -0.0046 0 0 10 0
0.6680 0.0332 -0.0062 0 0 10 0
0.6580 0.0332 -0.0062 0 0 10 0
0.6780 0.0327 -0.0081 0 0 10 0
0.6840 0.0327 -0.0079 0 0 10 0
0.6700 0.0325 -0.0090 0 0 10 0
0.6860 0.0325 -0.0081 0 0 10 0
0.7120 0.0320 -0.0088 0 0 10 0
0.6840 0.0318 -0.0087 0 0 10 0
0.6840 0.0318 -0.0087 0 0 10 0
0.6800 0.0316 -0.0098 0 0 10 0
0.6840 0.0313 -0.0078 0 0 10 0
0.6760 0.0308 -0.0087 0 0 10 0
0.6740 0.0297 -0.0093 0 0 10 0
0.6720 0.0292 -0.0097 0 0 10 0
0.6720 0.0292 -0.0097 0 0 10 0
0.6920 0.0289 -0.0092 0 0 10 0
0.6680 0.0289 -0.0093 0 0 10 0
0.6600 0.0289 -0.0095 0 0 10 0
0.6520 0.0288 -0.0094 0 0 10 0
0.6520 0.0288 -0.0094 0 0 10 0
0.6700 0.0291 -0.0075 0 0 10 0
0.6700 0.0291 -0.0075 0 0 10 0
0.6780 0.0281 -0.0086 0 0 10 0
0.6780 0.0268 -0.0068 0 0 10 0
0.6840 0.0260 -0.0066 0 0 10 0
0.6800 0.0256 -0.0070 0 0 10 0
0.6800 0.0256 -0.0070 0 0 10 0
0.6660 0.0263 -0.0071 0 0 10 0
0.6660 0.0263 -0.0071 0 0 10 0
0.6620 0.0262 -0.0063 0 0 10 0
0.6620 0.0260 -0.0077 0 0 10 0
0.6780 0.0247 -0.0072 0 0 10 0
0.6780 0.0247 -0.0072 0 0 10 0
0.6620 0.0236 -0.0072 0 0 10 0
0.6620 0.0225 -0.0071 0 0 10 0
0.6700 0.0225 -0.0109 0 0 10 0
0.6800 0.0225 -0.0096 0 0 10 0
0.6840 0.0217 -0.0095 0 0 10 0
0.6840 0.0217 -0.0095 0 0 10 0
0.6680 0.0208 -0.0108 0 0 10 0
0.6620 0.0203 -0.0108 0 0 10 0
0.6740 0.0200 -0.0118 0 0 10 0
0.6740 0.0200 -0.0118 0 0 10 0
0.6760 0.0196 -0.0126 0 0 10 0
0.6800 0.0193 -0.0120 0 0 10 0
0.6640 0.0188 -0.0115 0 0 10 0
0.6780 0.0178 -0.0122 0 0 10 0
0.6780 0.0178 -0.0122 0 0 10 0
0.6860 0.0159 -0.0136 0 0 10 0
0.6860 0.0159 -0.0136 0 0 10 0
0.6560 0.0154 -0.0133 0 0 10 0
0.6620 0.0153 -0.0131 0 0 10 0
0.6700 0.0149 -0.0117 0 0 10 0
0.6700 0.0149 -0.0117 0 0 10 0
0.6740 0.0144 -0.0112 0 0 10 0
0.6700 0.0138 -0.0103 0 0 10 0
0.6780 0.0132 -0.0091 0 0 10 0
0.6740 0.0129 -0.0089 0 0 10 0
0.6620 0.0127 -0.0094 0 0 10 0
0.6900 0.0127 -0.0095 0 0 10 0
0.6900 0.0127 -0.0095 0 0 0 0
0.6720 0.0097 -0.0043 0 0 0 10
0.7040 0.0085 -0.0093 0 0 0 0
0.6960 0.0090 -0.0076 0 0 10 0
0.6900 0.0090 -0.0091 0 0 10 0
0.7040 0.0085 -0.0078 0 0 10 0
0.6860 0.0083 -0.0091 0 0 10 0
0.6860 0.0083 -0.0091 0 0 10 0
0.7040 0.0086 -0.0088 0 0 10 0
0.6940 0.0088 -0.0081 0 0 10 0
0.6940 0.0092 -0.0075 0 0 10 0
0.6940 0.0092 -0.0075 0 0 10 0
0.6980 0.0094 -0.0072 0 0 10 0
0.6980 0.0094 -0.0072 0 0 10 0
0.6460 0.0089 -0.0071 0 0 10 0
0.6960 0.0088 -0.0071 0 0 10 0
0.7060 0.0086 -0.0086 0 0 10 0
0.7060 0.0086 -0.0086 0 0 10 0
0.6960 0.0084 -0.0086 0 0 10 0
0.6900 0.0078 -0.0075 0 0 10 0
0.7000 0.0077 -0.0075 0 0 10 0
0.7060 0.0075 -0.0090 0 0 10 0
0.7060 0.0069 -0.0073 0 0 10 0
0.7060 0.0069 -0.0073 0 0 10 0
0.7220 0.0058 -0.0077 0 0 10 0
0.6900 0.0056 -0.0107 0 0 10 0
0.7060 0.0053 -0.0111 0 0 10 0
0.7100 0.0053 -0.0087 0 0 10 0
0.6860 0.0051 -0.0095 0 0 0 0
