0.5700 0.0011 0.0270 10 0 0 0
0.5920 0.0007 0.0291 10 0 0 0
0.5920 0.0007 0.0291 10 0 0 0
0.5920 0.0007 0.0291 10 0 0 0
0.5920 0.0007 0.0291 10 0 0 0
0.6040 0.0011 0.0320 10 0 0 0
0.5840 0.0021 0.0325 10 0 0 0
0.5860 0.0019 0.0345 10 0 0 0
0.5820 0.0016 0.0342 10 0 0 0
0.5960 0.0017 0.0354 10 0 0 0
0.5920 0.0018 0.0353 10 0 0 0
0.5920 0.0018 0.0353 10 0 0 0
0.5980 0.0019 0.0352 10 0 0 0
0.5940 0.0014 0.0353 10 0 0 0
0.5900 0.0013 0.0344 0 0 0 0
0.5980 0.0016 0.0333 10 0 0 0
0.5780 0.0018 0.0307 10 0 0 0
0.5860 0.0016 0.0306 10 0 0 0
0.5860 0.0016 0.0291 10 0 0 0
0.5960 0.0016 0.0291 10 0 0 0
0.5900 0.0014 0.0290 10 0 0 0
0.5880 0.0008 0.0286 10 0 0 0
0.5980 0.0002 0.0287 10 0 0 0
0.5980 0.0004 0.0275 10 0 0 0
0.5840 0.0004 0.0275 10 0 0 0
0.6000 0.0009 0.0270 10 0 0 0
0.5700 0.0011 0.0291 10 0 0 0
0.5700 0.0011 0.0291 10 0 0 0
0.5860 0.0016 0.0295 10 0 0 0
0.5740 0.0020 0.0297 10 0 0 0
0.5740 0.0020 0.0297 10 0 0 0
0.5740 0.0020 0.0296 10 0 0 0
0.5800 0.0019 0.0292 10 0 0 0
0.5800 0.0020 0.0296 10 0 0 0
0.6000 0.0020 0.0316 0 0 0 0
0.5640 0.0018 0.0321 0 0 0 0
0.5680 0.0016 0.0340 0 0 0 -10
0.5780 0.0020 0.0300 0 0 0 -10
0.5780 0.0018 0.0323 0 0 0 -10
0.5840 0.0018 0.0323 0 0 0 0
0.5620 0.0024 0.0335 0 0 0 -10
0.5800 0.0022 0.0369 0 0 0 -10
0.5800 0.0022 0.0369 0 0 0 0
0.5760 0.0012 0.0227 0 0 0 -10
0.5780 0.0003 0.0210 0 0 0 0
0.5920 0.0017 0.0186 0 0 0 -10
0.5720 0.0007 0.0152 0 0 0 -10
0.5720 0.0007 0.0152 0 0 0 -10
0.5740 0.0005 0.0159 0 0 0 0
0.5700 0.0009 0.0151 0 0 0 -10
0.5680 0.0019 0.0117 0 0 0 -10
0.5860 0.0023 0.0066 0 0 0 -10
0.5800 0.0025 0.0036 0 0 0 0
0.5560 0.0020 -0.0192 10 0 0 0
0.5700 0.0031 -0.0247 10 0 0 0
0.5520 0.0031 -0.0280 10 0 0 0
0.5640 0.0030 -0.0287 10 0 0 0
0.5580 0.0030 -0.0288 10 0 0 0
0.5600 0.0029 -0.0291 10 0 0 0
0.5600 0.0029 -0.0291 10 0 0 0
0.5380 0.0029 -0.0281 10 0 0 0
0.5380 0.0029 -0.0281 10 0 0 0
0.5380 0.0028 -0.0280 0 0 0 0
0.5560 0.0027 -0.0247 10 0 0 0
0.5520 0.0023 -0.0278 10 0 0 0
0.5480 0.0016 -0.0273 10 0 0 0
0.5320 0.0006 -0.0276 10 0 0 0
0.5380 0.0003 -0.0273 10 0 0 0
0.5380 0.0003 -0.0250 10 0 0 0
0.5380 0.0003 -0.0250 10 0 0 0
0.5560 0.0010 -0.0250 10 0 0 0
0.5360 0.0014 -0.0258 10 0 0 0
0.5680 0.0017 -0.0258 10 0 0 0
0.5400 0.0014 -0.0263 10 0 0 0
0.5460 0.0005 -0.0258 10 0 0 0
0.5460 0.0005 -0.0258 10 0 0 0
0.5500 0.0002 -0.0240 10 0 0 0
0.5500 0.0007 -0.0199 10 0 0 0
0.5560 0.0011 -0.0198 10 0 0 0
0.5560 0.0011 -0.0198 10 0 0 0
0.5300 0.0017 -0.0180 10 0 0 0
0.5420 0.0022 -0.0168 10 0 0 0
0.5360 0.0024 -0.0169 10 0 0 0
0.5460 0.0028 -0.0191 0 0 0 0
0.5520 0.0023 -0.0199 10 0 0 0
0.5720 0.0033 -0.0197 10 0 0 0
0.5500 0.0027 -0.0195 10 0 0 0
0.5560 0.0029 -0.0178 10 0 0 0
0.5560 0.0029 -0.0178 10 0 0 0
0.5600 0.0026 -0.0181 10 0 0 0
0.5620 0.0028 -0.0185 10 0 0 0
0.5640 0.0025 -0.0193 10 0 0 0
0.5580 0.0016 -0.0197 10 0 0 0
0.5480 0.0020 -0.0174 10 0 0 0
0.5480 0.0020 -0.0174 10 0 0 0
0.5520 0.0023 -0.0183 10 0 0 0
0.5480 0.0025 -0.0216 10 0 0 0
0.5720 0.0023 -0.0220 10 0 0 0
0.5500 0.0018 -0.0253 10 0 0 0
0.5500 0.0018 -0.0253 10 0 0 0
0.5500 0.0019 -0.0285 10 0 0 0
0.5400 0.0018 -0.0287 10 0 0 0
0.5480 0.0016 -0.0291 10 0 0 0
0.5480 0.0016 -0.0291 10 0 0 0
0.5440 0.0017 -0.0293 10 0 0 0
0.5380 0.0016 -0.0273 10 0 0 0
0.5320 0.0015 -0.0274 10 0 0 0
0.5620 0.0017 -0.0271 10 0 0 0
0.5340 0.0016 -0.0268 10 0 0 0
0.5140 0.0019 -0.0259 10 0 0 0
0.5140 0.0019 -0.0259 10 0 0 0
0.5480 0.0020 -0.0259 10 0 0 0
0.5480 0.0020 -0.0259 10 0 0 0
0.5260 0.0027 -0.0264 10 0 0 0
0.5440 0.0037 -0.0253 10 0 0 0
0.5460 0.0034 -0.0240 0 0 0 0
0.5580 0.0019 -0.0224 10 0 0 0
0.5280 0.0023 -0.0245 10 0 0 0
0.5420 0.0025 -0.0244 10 0 0 0
0.5700 0.0021 -0.0244 10 0 0 0
0.5680 0.0016 -0.0246 10 0 0 0
0.5340 0.0014 -0.0247 10 0 0 0
0.5380 0.0014 -0.0236 10 0 0 0
0.5460 0.0013 -0.0240 10 0 0 0
0.5600 0.0013 -0.0249 10 0 0 0
0.5600 0.0013 -0.0249 10 0 0 0
0.5600 0.0011 -0.0249 10 0 0 0
0.5620 0.0011 -0.0246 10 0 0 0
0.5740 0.0015 -0.0246 10 0 0 0
0.5740 0.0015 -0.0246 0 0 0 0
0.5820 0.0027 -0.0202 0 0 0 10
0.5680 0.0032 -0.0141 0 0 0 10
0.5760 0.0024 -0.0110 0 0 0 0
0.5560 0.0014 -0.0088 0 0 0 10
0.5680 0.0007 -0.0065 0 0 0 10
0.5480 0.0013 -0.0063 0 0 0 10
0.5480 0.0013 -0.0063 0 0 0 0
0.5380 0.0016 0.0011 0 -10 0 0
0.5580 0.0025 0.0006 0 -10 0 0
0.5680 0.0016 0.0005 0 -10 0 0
0.5500 0.0021 -0.0046 0 -10 0 0
0.5480 0.0022 -0.0050 0 -10 0 0
0.5480 0.0020 -0.0076 0 -10 0 0
0.5580 0.0020 -0.0076 0 -10 0 0
0.5620 0.0015 -0.0066 0 -10 0 0
0.5580 0.0012 -0.0063 0 -10 0 0
0.5500 0.0010 -0.0064 0 -10 0 0
0.5660 0.0012 -0.0063 0 -10 0 0
0.5660 0.0012 -0.0063 0 -10 0 0
0.5380 0.0015 -0.0053 0 -10 0 0
0.5400 0.0020 -0.0045 0 -10 0 0
0.5400 0.0016 -0.0039 0 -10 0 0
0.5400 0.0016 -0.0039 0 -10 0 0
0.5520 0.0010 -0.0032 0 -10 0 0
0.5480 0.0007 -0.0035 0 -10 0 0
0.5620 0.0009 -0.0034 0 -10 0 0
0.5780 0.0012 -0.0044 0 -10 0 0
0.5780 0.0012 -0.0044 0 -10 0 0
0.5900 0.0020 -0.0043 0 -10 0 0
0.5700 0.0022 -0.0071 0 -10 0 0
0.5920 0.0018 -0.0067 0 -10 0 0
0.5700 0.0016 -0.0059 0 -10 0 0
0.5700 0.0016 -0.0053 0 -10 0 0
0.5440 0.0016 -0.0073 0 -10 0 0
0.5440 0.0016 -0.0073 0 -10 0 0
0.5740 0.0019 -0.0071 0 -10 0 0
0.5840 0.0020 -0.0099 0 -10 0 0
0.5840 0.0020 -0.0099 0 -10 0 0
0.5660 0.0020 -0.0099 0 -10 0 0
0.5660 0.0020 -0.0099 0 -10 0 0
0.5520 0.0019 -0.0097 0 -10 0 0
0.5520 0.0009 -0.0058 0 -10 0 0
0.5480 0.0008 -0.0008 0 0 0 0
0.5620 0.0016 -0.0048 0 -10 0 0
0.5700 0.0017 -0.0025 0 -10 0 0
0.5360 0.0020 -0.0028 0 -10 0 0
0.5500 0.0014 -0.0028 0 -10 0 0
0.5440 0.0013 -0.0029 0 -10 0 0
0.5440 0.0013 -0.0029 0 -10 0 0
0.5640 0.0016 -0.0019 0 -10 0 0
0.5580 0.0020 -0.0016 0 -10 0 0
0.5660 0.0022 0.0002 0 -10 0 0
0.5660 0.0022 0.0002 0 -10 0 0
0.5320 0.0020 0.0034 0 -10 0 0
0.5320 0.0020 0.0034 0 -10 0 0
0.5320 0.0020 0.0036 0 -10 0 0
0.5420 0.0019 0.0051 0 -10 0 0
0.5520 0.0016 0.0059 0 -10 0 0
0.5460 0.0017 0.0064 0 -10 0 0
0.5420 0.0020 0.0062 0 -10 0 0
0.5540 0.0021 0.0052 0 -10 0 0
0.5380 0.0021 0.0047 0 -10 0 0
0.5380 0.0021 0.0047 0 -10 0 0
0.5460 0.0018 0.0031 0 -10 0 0
0.5460 0.0018 0.0031 0 -10 0 0
0.5660 0.0020 0.0027 0 -10 0 0
0.5560 0.0020 0.0026 0 -10 0 0
0.5520 0.0022 0.0023 0 -10 0 0
0.5660 0.0018 0.0013 0 -10 0 0
0.5660 0.0018 0.0013 0 -10 0 0
0.5520 0.0012 0.0012 0 -10 0 0
0.5520 0.0012 0.0012 0 0 0 0
0.5640 0.0023 0.0005 0 -10 0 0
0.5640 0.0014 -0.0002 0 -10 0 0
0.5620 0.0011 -0.0022 0 -10 0 0
0.5620 0.0012 -0.0021 0 -10 0 0
0.5720 0.0012 0.0005 0 -10 0 0
0.5520 0.0018 -0.0001 0 -10 0 0
0.5520 0.0018 -0.0001 0 -10 0 0
0.5600 0.0023 -0.0005 0 -10 0 0
0.5600 0.0023 -0.0005 0 -10 0 0
0.5880 0.0023 0.0008 0 -10 0 0
0.5760 0.0018 0.0031 0 -10 0 0
0.5760 0.0018 0.0031 0 -10 0 0
0.5720 0.0013 0.0043 0 -10 0 0
0.5620 0.0012 0.0046 0 -10 0 0
0.5740 0.0010 0.0030 0 -10 0 0
0.5680 0.0011 0.0040 0 -10 0 0
0.5680 0.0011 0.0040 0 -10 0 0
0.5740 0.0015 0.0020 0 -10 0 0
0.5740 0.0015 0.0020 0 -10 0 0
0.5660 0.0016 -0.0005 0 0 0 0
0.5780 -0.0001 0.0013 0 -10 0 0
0.5840 0.0014 0.0031 0 -10 0 0
0.5760 0.0016 0.0069 0 -10 0 0
0.5720 0.0012 0.0071 0 -10 0 0
0.5720 0.0019 0.0025 0 -10 0 0
0.5720 0.0026 0.0026 0 -10 0 0
0.5640 0.0030 0.0003 0 -10 0 0
0.5640 0.0031 0.0002 0 -10 0 0
0.5560 0.0031 0.0002 0 -10 0 0
0.5680 0.0024 -0.0045 0 -10 0 0
0.5600 0.0018 -0.0055 0 -10 0 0
0.5480 0.0016 -0.0056 0 -10 0 0
0.5480 0.0017 -0.0080 0 -10 0 0
0.5540 0.0022 -0.0072 0 -10 0 0
0.5540 0.0022 -0.0072 0 -10 0 0
0.5620 0.0024 -0.0052 0 -10 0 0
0.5580 0.0025 -0.0048 0 -10 0 0
0.5520 0.0023 -0.0060 0 -10 0 0
0.5720 0.0022 -0.0071 0 -10 0 0
0.5720 0.0026 -0.0097 0 -10 0 0
0.5680 0.0026 -0.0097 0 -10 0 0
0.5860 0.0022 -0.0092 0 -10 0 0
0.5700 0.0025 -0.0099 0 0 0 0
0.5940 0.0028 -0.0110 0 -10 0 0
0.5820 0.0024 -0.0132 0 -10 0 0
0.6060 0.0023 -0.0132 0 -10 0 0
0.6060 0.0023 -0.0132 0 -10 0 0
0.5780 0.0019 -0.0133 0 -10 0 0
0.5760 0.0015 -0.0130 0 -10 0 0
0.5700 0.0014 -0.0118 0 -10 0 0
0.5860 0.0012 -0.0116 0 -10 0 0
0.5860 0.0012 -0.0116 0 -10 0 0
0.5860 0.0013 -0.0103 0 -10 0 0
0.5740 0.0018 -0.0102 0 -10 0 0
0.5860 0.0019 -0.0106 0 0 0 0
0.5720 0.0020 -0.0051 0 -10 0 0
0.5680 0.0029 0.0009 0 -10 0 0
0.5940 0.0024 0.0038 0 -10 0 0
0.5700 0.0025 0.0040 0 -10 0 0
0.5680 0.0021 0.0054 0 -10 0 0
0.5680 0.0021 0.0054 0 -10 0 0
0.5600 0.0017 0.0052 0 -10 0 0
0.5680 0.0016 0.0053 0 -10 0 0
0.5560 0.0016 0.0046 0 -10 0 0
0.5560 0.0016 0.0046 0 -10 0 0
0.5740 0.0020 0.0031 0 -10 0 0
0.5820 0.0021 0.0016 0 -10 0 0
0.5760 0.0022 0.0020 0 -10 0 0
0.5720 0.0021 0.0038 0 -10 0 0
0.5780 0.0020 0.0038 0 -10 0 0
0.5660 0.0019 0.0043 0 -10 0 0
0.5660 0.0019 0.0043 0 -10 0 0
0.5800 0.0023 0.0044 0 -10 0 0
0.5860 0.0026 0.0032 0 -10 0 0
0.5840 0.0030 0.0036 0 -10 0 0
0.5720 0.0032 0.0007 0 -10 0 0
0.5780 0.0026 0.0004 0 -10 0 0
0.6020 0.0023 0.0021 0 -10 0 0
0.6020 0.0023 0.0021 0 -10 0 0
0.5820 0.0024 0.0023 0 0 0 0
0.5760 0.0022 0.0146 0 -10 0 0
0.5620 0.0010 0.0189 0 -10 0 0
0.5720 0.0014 0.0190 0 -10 0 0
0.5620 0.0014 0.0201 0 -10 0 0
0.5640 0.0004 0.0219 0 -10 0 0
0.5700 -0.0003 0.0240 0 -10 0 0
0.5700 -0.0003 0.0240 0 -10 0 0
0.5660 -0.0002 0.0235 0 -10 0 0
0.5660 -0.0002 0.0235 0 -10 0 0
0.5420 0.0003 0.0260 0 -10 0 0
0.5600 0.0004 0.0261 0 -10 0 0
0.5660 0.0004 0.0263 0 0 0 0
0.5620 0.0019 0.0319 -10 0 0 0
0.5660 0.0008 0.0301 -10 0 0 0
0.5680 0.0014 0.0335 -10 0 0 0
0.5520 0.0012 0.0359 -10 0 0 0
0.5660 0.0006 0.0362 -10 0 0 0
0.5820 0.0001 0.0363 -10 0 0 0
0.5820 0.0001 0.0363 -10 0 0 0
0.5740 0.0002 0.0362 -10 0 0 0
0.5720 0.0008 0.0360 -10 0 0 0
0.5700 0.0011 0.0385 -10 0 0 0
0.5700 0.0009 0.0380 -10 0 0 0
0.5700 0.0009 0.0380 -10 0 0 0
0.5660 0.0005 0.0387 -10 0 0 0
0.5540 0.0002 0.0403 -10 0 0 0
0.5540 0.0000 0.0406 -10 0 0 0
0.5380 0.0000 0.0406 0 0 0 0
0.5720 0.0019 0.0436 -10 0 0 0
0.5640 0.0018 0.0452 -10 0 0 0
0.5500 0.0011 0.0466 -10 0 0 0
0.5540 0.0011 0.0475 -10 0 0 0
0.5540 0.0011 0.0475 -10 0 0 0
0.5860 0.0013 0.0475 -10 0 0 0
0.5860 0.0012 0.0486 -10 0 0 0
0.5760 0.0005 0.0489 -10 0 0 0
0.5720 0.0003 0.0496 -10 0 0 0
0.5720 0.0003 0.0496 -10 0 0 0
0.5820 0.0014 0.0493 -10 0 0 0
0.5720 0.0016 0.0492 -10 0 0 0
0.5720 0.0016 0.0492 0 0 0 0
0.5380 0.0003 0.0643 -10 0 0 0
0.5660 0.0007 0.0632 -10 0 0 0
0.5420 0.0013 0.0623 -10 0 0 0
0.5520 0.0013 0.0619 -10 0 0 0
0.5620 0.0017 0.0650 -10 0 0 0
0.5520 0.0018 0.0651 -10 0 0 0
0.5520 0.0018 0.0651 -10 0 0 0
0.5640 0.0023 0.0672 -10 0 0 -10
0.5480 0.0021 0.0668 0 0 0 -10
0.5480 0.0018 0.0669 0 0 0 -10
0.5480 0.0019 0.0677 0 0 0 -10
0.5480 0.0020 0.0676 0 0 0 0
0.5540 0.0018 0.0691 0 0 0 -10
0.5400 0.0020 0.0687 0 0 0 -10
0.5420 0.0016 0.0707 0 0 0 -10
0.5340 0.0019 0.0692 0 0 0 -10
0.5440 0.0016 0.0691 0 0 0 0
0.5440 0.0006 0.0676 0 0 0 -10
0.5160 0.0021 0.0672 0 0 0 -10
0.5300 0.0023 0.0643 0 0 0 -10
0.5300 0.0023 0.0643 0 0 0 -10
0.5100 0.0022 0.0622 0 0 0 0
0.5280 0.0006 0.0563 0 0 0 -10
0.5580 0.0014 0.0460 0 0 0 -10
0.5540 0.0022 0.0435 0 0 0 -10
0.5560 0.0016 0.0432 0 0 0 0
0.5520 0.0013 0.0377 0 0 0 -10
0.5720 0.0027 0.0346 0 0 0 -10
0.5560 0.0010 0.0348 0 0 0 -10
0.5660 0.0005 0.0315 0 0 0 -10
0.5600 0.0006 0.0314 0 0 0 0
0.5480 0.0008 0.0328 0 0 0 -10
0.5720 0.0007 0.0295 0 0 0 -10
0.5600 0.0011 0.0307 0 0 0 -10
0.5500 0.0012 0.0308 0 0 0 -10
0.5500 0.0012 0.0308 0 0 0 0
0.5720 0.0020 0.0286 0 0 0 -10
0.5780 0.0015 0.0353 0 0 0 -10
0.5680 0.0017 0.0363 0 0 0 -10
0.5800 0.0019 0.0365 0 0 0 0
0.5600 0.0013 0.0286 0 0 0 -10
0.5720 0.0014 0.0285 0 0 0 -10
0.5860 0.0015 0.0281 0 0 0 0
0.5940 0.0014 0.0309 0 0 0 -10
0.6040 0.0025 0.0291 0 0 0 -10
0.5940 0.0025 0.0269 0 0 0 0
0.5740 0.0016 0.0093 0 0 0 -10
0.5980 0.0007 0.0017 0 0 0 -10
0.6020 0.0006 -0.0035 0 0 0 0
0.6020 0.0003 -0.0013 0 0 0 -10
0.5720 0.0008 0.0037 0 0 0 -10
0.6040 -0.0001 0.0061 0 0 0 0
0.5720 0.0011 -0.0027 -10 0 0 0
0.6160 0.0007 0.0027 -10 0 0 0
0.5720 0.0005 0.0037 -10 0 0 0
0.5900 0.0010 0.0038 -10 0 0 0
0.5900 0.0010 0.0038 -10 0 0 0
0.5800 0.0013 0.0025 -10 0 0 0
0.5800 0.0013 0.0025 -10 0 0 0
0.5780 0.0012 0.0035 -10 0 0 0
0.5720 0.0010 0.0043 -10 0 0 0
0.5740 0.0011 0.0045 0 0 0 0
0.5720 0.0004 0.0027 10 0 0 0
0.5920 0.0008 0.0024 10 0 0 0
0.5820 0.0018 0.0012 10 0 0 0
0.5820 0.0019 0.0010 10 0 0 0
0.5780 0.0019 -0.0002 10 0 0 0
0.5780 0.0019 -0.0002 10 0 0 0
0.5760 0.0022 -0.0004 10 0 0 0
0.6040 0.0026 -0.0011 10 0 0 0
0.5980 0.0027 -0.0019 0 0 0 0
0.6060 0.0030 -0.0035 10 0 0 0
0.5820 0.0022 -0.0048 10 0 0 0
0.5940 0.0018 -0.0048 10 0 0 0
0.5960 0.0015 -0.0051 10 0 0 0
0.5940 0.0011 -0.0042 10 0 0 0
0.5940 0.0011 -0.0042 10 0 0 0
0.6040 0.0011 -0.0040 10 0 0 0
0.6000 0.0017 -0.0040 10 0 0 0
0.6060 0.0016 -0.0041 0 0 0 0
0.6060 0.0005 -0.0049 10 0 0 0
0.5900 0.0014 -0.0044 10 0 0 0
0.5920 0.0009 -0.0046 10 0 0 0
0.5800 0.0009 -0.0045 10 0 0 0
0.5880 0.0009 -0.0045 10 0 0 0
0.6020 0.0006 -0.0045 10 0 0 0
0.6100 0.0004 -0.0046 10 0 0 0
0.6060 0.0007 -0.0039 10 0 0 0
0.6060 0.0007 -0.0039 0 0 0 0
0.5940 0.0011 -0.0036 10 0 0 0
0.6000 0.0015 -0.0041 10 0 0 0
0.5820 0.0010 -0.0054 10 0 0 0
0.5940 0.0012 -0.0054 10 0 0 0
0.6060 0.0015 -0.0040 10 0 0 0
0.5880 0.0020 -0.0036 10 0 0 0
0.5880 0.0020 -0.0036 10 0 0 0
0.5980 0.0020 -0.0004 10 0 0 0
0.5940 0.0020 -0.0004 10 0 0 0
0.5960 0.0020 -0.0000 0 0 0 0
0.6080 0.0014 -0.0009 10 0 0 0
0.6000 0.0011 -0.0027 10 0 0 0
0.6000 0.0019 -0.0010 10 0 0 0
0.6000 0.0019 -0.0010 10 0 0 0
0.6080 0.0017 -0.0018 10 0 0 0
0.5940 0.0016 -0.0019 10 0 0 0
0.6020 0.0017 -0.0020 10 0 0 0
0.6000 0.0018 -0.0023 10 0 0 0
0.6000 0.0024 -0.0022 10 0 0 0
0.5860 0.0024 -0.0022 10 0 0 0
0.6000 0.0028 -0.0019 10 0 0 0
0.5920 0.0018 -0.0007 0 0 0 0
0.5760 0.0009 -0.0013 10 0 0 0
0.6080 0.0031 -0.0030 10 0 0 0
0.6120 0.0015 -0.0019 10 0 0 0
0.6120 0.0015 -0.0019 10 0 0 0
0.6280 0.0021 -0.0009 10 0 0 0
0.6140 0.0025 -0.0007 10 0 0 0
0.6140 0.0027 -0.0003 10 0 0 0
0.6140 0.0029 -0.0001 10 0 0 0
0.5980 0.0028 -0.0000 10 0 0 0
0.5920 0.0029 -0.0002 10 0 0 0
0.5920 0.0029 -0.0002 10 0 0 0
0.6060 0.0030 -0.0019 10 0 0 0
0.6140 0.0031 -0.0020 10 0 0 0
0.6220 0.0030 -0.0014 10 0 0 0
0.6180 0.0024 -0.0007 10 0 0 0
0.6140 0.0020 -0.0011 10 0 0 0
0.6000 0.0017 -0.0001 10 0 0 0
0.6000 0.0017 -0.0001 10 0 0 0
0.6180 0.0022 -0.0007 10 0 0 0
0.5900 0.0023 -0.0004 10 0 0 0
0.5940 0.0021 -0.0009 10 0 0 0
0.6160 0.0021 -0.0010 10 0 0 0
0.5960 0.0020 -0.0011 10 0 0 0
0.6100 0.0016 -0.0017 10 0 0 0
0.6100 0.0016 -0.0017 10 0 0 0
0.6220 0.0009 -0.0019 10 0 0 0
0.6060 0.0007 -0.0011 10 0 0 0
0.6240 0.0010 -0.0016 0 0 0 0
0.6080 0.0007 -0.0022 10 0 0 0
0.6060 0.0013 -0.0053 10 0 0 0
0.6240 0.0011 -0.0059 10 0 0 0
0.6240 0.0011 -0.0059 10 0 0 0
0.6380 0.0016 -0.0061 10 0 0 0
0.6400 0.0013 -0.0047 10 0 0 0
0.6240 0.0012 -0.0046 10 0 0 0
0.6240 0.0012 -0.0046 10 0 0 0
0.6300 0.0018 -0.0042 10 0 0 0
0.6540 0.0019 -0.0037 10 0 0 0
0.6360 0.0019 -0.0036 10 0 0 0
0.6500 0.0009 -0.0053 10 0 0 0
0.6540 0.0009 -0.0053 10 0 0 0
0.6720 0.0011 -0.0056 0 0 0 0
0.6940 0.0019 -0.0065 10 0 0 0
0.6600 0.0021 -0.0046 10 0 0 0
0.6540 0.0033 -0.0019 10 0 0 0
0.6800 0.0029 -0.0009 10 0 0 0
0.6800 0.0029 -0.0009 10 0 0 0
0.6640 0.0031 0.0004 10 0 0 0
0.6720 0.0031 -0.0003 10 0 0 0
0.6780 0.0029 0.0013 10 0 0 0
0.6880 0.0029 0.0010 10 0 0 0
0.6880 0.0029 0.0010 10 0 0 0
0.6740 0.0029 0.0010 0 0 0 0
0.6760 0.0028 0.0036 10 0 0 0
0.6840 0.0027 0.0077 10 0 0 0
0.6740 0.0024 0.0096 10 0 0 0
0.6780 0.0029 0.0099 0 0 0 0
0.6540 0.0007 0.0009 10 0 0 0
0.6560 0.0024 -0.0005 10 0 0 0
0.6740 0.0016 0.0028 10 0 0 0
0.6560 0.0009 -0.0008 10 0 0 0
0.6560 0.0009 -0.0008 10 0 0 0
0.6540 0.0006 0.0001 0 0 0 0
0.6400 0.0014 0.0146 10 0 0 0
0.6480 0.0014 0.0192 10 0 0 0
0.6480 0.0014 0.0204 10 0 0 0
0.6380 0.0020 0.0185 10 0 0 0
0.6380 0.0020 0.0185 10 0 0 0
0.6240 0.0020 0.0181 0 0 0 0
0.6520 0.0018 0.0196 10 0 0 0
0.6640 0.0018 0.0204 10 0 0 0
0.6560 0.0015 0.0201 10 0 0 0
0.6560 0.0015 0.0201 10 0 0 0
0.6620 0.0005 0.0194 0 0 0 0
0.6600 -0.0002 0.0186 10 0 0 0
0.6660 0.0007 0.0205 10 0 0 0
0.6560 0.0011 0.0195 10 0 0 0
0.6680 0.0011 0.0195 10 0 0 0
0.6500 0.0012 0.0230 10 0 0 0
0.6640 0.0010 0.0229 10 0 0 0
0.6640 0.0010 0.0229 0 0 0 0
0.6580 0.0001 0.0216 10 0 0 0
0.6600 0.0002 0.0245 10 0 0 0
0.6760 0.0007 0.0240 10 0 0 0
0.6620 0.0014 0.0231 10 0 0 0
0.6640 0.0015 0.0232 10 0 0 0
0.6640 0.0015 0.0232 0 0 0 0
0.6560 0.0009 0.0228 10 0 0 0
0.6780 0.0017 0.0219 10 0 0 0
0.6700 0.0017 0.0209 10 0 0 0
0.6660 0.0027 0.0204 10 0 0 0
0.6660 0.0027 0.0204 10 0 0 0
0.6740 0.0036 0.0198 0 0 0 0
0.6660 0.0024 0.0183 10 0 0 0
0.6740 0.0011 0.0179 10 0 0 0
0.6540 0.0019 0.0172 10 0 0 0
0.6680 0.0020 0.0199 10 0 0 0
0.6600 0.0013 0.0238 0 0 0 0
0.6740 0.0004 0.0206 10 0 0 0
0.6680 0.0015 0.0188 10 0 0 0
0.6480 0.0006 0.0212 10 0 0 0
0.6400 0.0003 0.0208 10 0 0 0
0.6500 0.0002 0.0207 10 0 0 0
0.6480 -0.0001 0.0240 0 0 0 0
0.6500 0.0000 0.0260 10 0 0 0
0.6540 0.0005 0.0296 10 0 0 0
0.6560 0.0007 0.0371 10 0 0 0
0.6460 0.0011 0.0340 0 0 0 0
0.6260 0.0011 0.0308 10 0 0 0
0.6220 0.0010 0.0339 10 0 0 0
0.6380 0.0012 0.0338 10 0 0 0
0.6240 0.0014 0.0348 10 0 0 0
0.6200 0.0016 0.0346 0 0 0 0
0.6140 0.0020 0.0319 10 0 0 0
0.6360 0.0016 0.0267 10 0 0 0
0.6220 0.0016 0.0273 10 0 0 0
0.6260 0.0016 0.0273 10 0 0 0
0.6220 0.0016 0.0266 10 0 0 0
0.6440 0.0014 0.0255 0 0 0 0
0.6720 0.0013 0.0249 -10 0 0 0
0.6440 0.0005 0.0211 -10 0 0 0
0.6800 0.0012 0.0205 -10 0 0 0
0.6620 0.0012 0.0190 -10 0 0 0
0.6700 0.0012 0.0191 -10 0 0 0
0.6620 0.0012 0.0207 -10 0 0 0
0.6740 0.0005 0.0187 -10 0 0 0
0.6740 0.0005 0.0187 -10 0 0 0
0.6540 0.0004 0.0159 -10 0 0 0
0.6580 0.0003 0.0161 -10 0 0 0
0.6660 0.0004 0.0134 -10 0 0 0
0.6660 0.0011 0.0137 -10 0 0 0
0.6740 0.0011 0.0137 -10 0 0 0
0.6620 0.0019 0.0108 -10 0 0 0
0.6700 0.0023 0.0100 0 0 0 0
0.6600 0.0020 0.0053 -10 0 0 0
0.6740 0.0016 0.0034 -10 0 0 0
0.6680 0.0005 0.0058 -10 0 0 0
0.6700 0.0002 0.0084 -10 0 0 0
0.6700 0.0002 0.0085 -10 0 0 0
0.6700 0.0011 0.0065 -10 0 0 0
0.6900 0.0011 0.0065 -10 0 0 0
0.6760 0.0011 0.0067 -10 0 0 0
0.6880 0.0007 0.0056 -10 0 0 0
0.6900 0.0004 0.0062 -10 0 0 0
0.6900 0.0004 0.0062 -10 0 0 0
0.6740 0.0002 0.0035 -10 0 0 0
0.6880 0.0003 0.0028 -10 0 0 0
0.6700 0.0007 0.0031 -10 0 0 0
0.6760 0.0010 -0.0018 -10 0 0 0
0.6800 0.0009 -0.0041 -10 0 0 0
0.6660 0.0004 -0.0039 -10 0 0 0
0.6620 0.0005 -0.0035 -10 0 0 0
0.6820 0.0007 -0.0025 -10 0 0 0
0.6680 0.0014 -0.0017 -10 0 0 0
0.6600 0.0019 -0.0012 -10 0 0 0
0.6700 0.0026 -0.0034 -10 0 0 0
0.6780 0.0025 -0.0030 -10 0 0 0
0.6780 0.0025 -0.0030 -10 0 0 0
0.6580 0.0020 -0.0023 0 0 0 0
0.6880 0.0041 0.0003 -10 0 0 0
0.6680 0.0017 0.0009 -10 0 0 0
0.6960 0.0016 0.0017 -10 0 0 0
0.6960 0.0016 0.0017 -10 0 0 0
0.6920 0.0021 0.0016 -10 0 0 0
0.6800 0.0023 0.0016 -10 0 0 0
0.6940 0.0024 0.0024 -10 0 0 0
0.6880 0.0019 0.0025 -10 0 0 0
0.6920 0.0011 0.0015 -10 0 0 0
0.6780 0.0012 0.0017 -10 0 0 0
0.6780 0.0012 0.0017 -10 0 0 0
0.6940 0.0018 0.0016 -10 0 0 0
0.6840 0.0019 0.0007 -10 0 0 0
0.6840 0.0019 0.0007 -10 0 0 0
