0.6060 0.0009 0.0149 10 0 0 0
0.6000 0.0016 0.0160 10 0 0 0
0.6020 0.0012 0.0162 10 0 0 0
0.6120 0.0022 0.0166 10 0 0 0
0.6180 0.0022 0.0166 10 0 0 0
0.5920 0.0025 0.0165 10 0 0 0
0.6180 0.0022 0.0166 10 0 0 0
0.6280 0.0022 0.0160 10 0 0 0
0.6080 0.0020 0.0168 10 0 0 0
0.6080 0.0020 0.0168 0 0 0 0
0.6020 0.0034 0.0144 10 0 0 0
0.5960 0.0020 0.0121 10 0 0 0
0.6040 0.0029 0.0154 10 0 0 0
0.6220 0.0026 0.0157 10 0 0 0
0.6080 0.0024 0.0157 10 0 0 0
0.6100 0.0018 0.0182 10 0 0 0
0.6100 0.0018 0.0182 10 0 0 0
0.5980 0.0014 0.0198 10 0 0 0
0.5980 0.0014 0.0198 10 0 0 0
0.5960 0.0014 0.0199 10 0 0 0
0.6140 0.0016 0.0198 10 0 0 0
0.5900 0.0018 0.0199 10 0 0 0
0.5900 0.0018 0.0199 10 0 0 0
0.6080 0.0019 0.0186 10 0 0 0
0.6120 0.0023 0.0184 10 0 0 0
0.6140 0.0027 0.0182 0 0 0 0
0.6020 0.0012 0.0179 10 0 0 0
0.6260 0.0015 0.0188 10 0 0 0
0.6100 0.0017 0.0231 10 0 0 0
0.6100 0.0017 0.0231 10 0 0 0
0.5920 0.0011 0.0233 10 0 0 0
0.6200 0.0012 0.0237 10 0 0 0
0.6180 0.0011 0.0239 0 0 0 0
0.6180 0.0021 0.0193 10 0 0 0
0.6080 0.0016 0.0180 10 0 0 0
0.6300 0.0009 0.0162 10 0 0 0
0.6100 0.0009 0.0162 10 0 0 0
0.6240 0.0012 0.0167 10 0 0 0
0.6040 0.0017 0.0154 10 0 0 0
0.6300 0.0022 0.0153 10 0 0 0
0.6220 0.0023 0.0142 0 0 0 0
0.6120 0.0025 0.0147 10 0 0 0
0.6320 0.0025 0.0147 10 0 0 0
0.6200 0.0028 0.0152 10 0 0 0
0.6300 0.0034 0.0153 10 0 0 0
0.6220 0.0034 0.0164 10 0 0 0
0.6240 0.0034 0.0162 10 0 0 0
0.6240 0.0034 0.0162 10 0 0 0
0.6340 0.0033 0.0150 10 0 0 0
0.6320 0.0037 0.0148 10 0 0 0
0.6160 0.0040 0.0137 0 0 0 0
0.5960 0.0022 0.0105 10 0 0 0
0.6140 0.0030 0.0109 10 0 0 0
0.6020 0.0021 0.0094 10 0 0 0
0.6020 0.0021 0.0094 10 0 0 0
0.6120 0.0021 0.0093 10 0 0 0
0.6120 0.0020 0.0099 10 0 0 0
0.6020 0.0022 0.0122 10 0 0 0
0.6140 0.0023 0.0125 0 0 0 0
0.6360 0.0022 0.0129 10 0 0 0
0.6040 0.0015 0.0164 10 0 0 0
0.6160 0.0016 0.0168 10 0 0 0
0.6220 0.0018 0.0144 10 0 0 0
0.6220 0.0020 0.0142 10 0 0 0
0.6140 0.0020 0.0142 0 0 0 0
0.6280 0.0026 0.0158 10 0 0 0
0.6140 0.0022 0.0182 10 0 0 0
0.6060 0.0013 0.0168 10 0 0 0
0.6060 0.0013 0.0168 10 0 0 0
0.6000 0.0011 0.0178 10 0 0 0
0.6020 0.0018 0.0189 10 0 0 0
0.6200 0.0020 0.0187 0 0 0 0
0.6280 0.0017 0.0206 10 0 0 0
0.6100 0.0016 0.0206 10 0 0 0
0.6060 0.0016 0.0209 10 0 0 0
0.6180 0.0016 0.0201 10 0 0 0
0.6140 0.0019 0.0206 10 0 0 0
0.6180 0.0020 0.0219 10 0 0 0
0.5980 0.0023 0.0220 10 0 0 0
0.5980 0.0023 0.0220 0 0 0 0
0.6020 0.0036 0.0237 10 0 0 0
0.6200 0.0032 0.0243 10 0 0 0
0.6280 0.0022 0.0246 10 0 0 0
0.6220 0.0023 0.0241 10 0 0 0
0.6420 0.0026 0.0222 10 0 0 0
0.6420 0.0026 0.0222 10 0 0 0
0.6440 0.0028 0.0209 0 0 0 0
0.6280 0.0032 0.0205 10 0 0 0
0.6300 0.0023 0.0205 10 0 0 0
0.6220 0.0020 0.0194 10 0 0 0
0.6580 0.0025 0.0200 10 0 0 0
0.6360 0.0023 0.0205 0 0 0 0
0.6420 0.0007 0.0229 10 0 0 0
0.6360 0.0015 0.0232 10 0 0 0
0.6420 0.0019 0.0202 10 0 0 0
0.6360 0.0018 0.0208 10 0 0 0
0.6460 0.0015 0.0210 10 0 0 0
0.6440 0.0012 0.0209 0 0 0 0
0.6300 0.0003 0.0230 0 0 0 -10
0.6420 0.0003 0.0253 0 0 0 -10
0.6420 0.0003 0.0253 0 0 0 -10
0.6400 0.0012 0.0238 0 0 0 0
0.6560 0.0013 0.0185 0 0 0 -10
0.6580 0.0011 0.0142 0 0 0 -10
0.6540 0.0011 0.0135 0 0 0 0
0.6520 0.0017 0.0035 0 0 0 -10
0.6580 0.0007 -0.0008 0 0 0 0
0.6460 0.0022 -0.0037 10 0 0 0
0.6480 0.0025 -0.0006 10 0 0 0
0.6640 0.0020 -0.0037 10 0 0 0
0.6580 0.0020 -0.0009 10 0 0 0
0.6580 0.0020 -0.0009 10 0 0 0
0.6620 0.0021 -0.0015 10 0 0 0
0.6660 0.0026 0.0018 10 0 0 0
0.6520 0.0026 0.0018 10 0 0 0
0.6520 0.0026 0.0018 10 0 0 0
0.6720 0.0027 0.0029 0 0 0 0
0.6760 0.0025 0.0025 10 0 0 0
0.6640 0.0034 0.0020 10 0 0 0
0.6640 0.0030 0.0058 10 0 0 0
0.6560 0.0030 0.0075 10 0 0 0
0.6560 0.0030 0.0075 10 0 0 0
0.6700 0.0027 0.0099 10 0 0 0
0.6560 0.0027 0.0121 10 0 0 0
0.6520 0.0029 0.0119 10 0 0 0
0.6560 0.0029 0.0137 0 0 0 0
0.6580 0.0026 0.0136 10 0 0 0
0.6360 0.0024 0.0125 10 0 0 0
0.6560 0.0023 0.0148 10 0 0 0
0.6720 0.0024 0.0146 10 0 0 0
0.6720 0.0024 0.0146 10 0 0 0
0.6580 0.0027 0.0161 10 0 0 0
0.6600 0.0023 0.0160 0 0 0 0
0.6740 0.0014 0.0158 10 0 0 0
0.6680 0.0011 0.0145 10 0 0 0
0.6680 0.0017 0.0130 10 0 0 0
0.6680 0.0017 0.0130 10 0 0 0
0.6380 0.0016 0.0126 10 0 0 0
0.6380 0.0016 0.0126 10 0 0 0
0.6580 0.0016 0.0109 10 0 0 0
0.6480 0.0020 0.0100 0 0 0 0
0.6620 0.0014 0.0116 10 0 0 0
0.6520 0.0004 0.0092 10 0 0 0
0.6460 0.0005 0.0095 10 0 0 0
0.6640 0.0009 0.0092 10 0 0 0
0.6560 0.0011 0.0096 0 0 0 0
0.6660 0.0030 0.0034 10 0 0 0
0.6440 0.0012 -0.0039 10 0 0 0
0.6720 0.0027 -0.0050 10 0 0 0
0.6620 0.0027 -0.0049 10 0 0 0
0.6700 0.0023 -0.0042 0 0 0 0
0.6740 0.0020 -0.0038 10 0 0 0
0.6600 0.0017 -0.0020 10 0 0 0
0.6780 0.0013 -0.0009 10 0 0 0
0.6700 0.0013 -0.0003 10 0 0 0
0.6700 0.0015 0.0022 10 0 0 0
0.6700 0.0015 0.0022 0 0 0 0
0.6600 0.0014 0.0024 10 0 0 0
0.6700 0.0011 0.0039 10 0 0 0
0.6880 0.0019 0.0044 10 0 0 0
0.6880 0.0019 0.0044 10 0 0 0
0.6720 0.0015 0.0041 0 0 0 0
0.6700 0.0029 -0.0016 10 0 0 0
0.6800 0.0021 -0.0002 10 0 0 0
0.6720 0.0022 0.0032 10 0 0 0
0.6780 0.0020 0.0031 10 0 0 0
0.6660 0.0020 0.0039 0 0 0 0
0.6840 0.0014 0.0051 10 0 0 0
0.6900 0.0006 0.0056 10 0 0 0
0.6620 0.0007 0.0056 10 0 0 0
0.6720 0.0011 0.0045 0 0 0 0
0.6740 0.0005 0.0054 10 0 0 0
0.6600 0.0022 0.0043 10 0 0 0
0.6620 0.0025 0.0046 10 0 0 0
0.6940 0.0021 0.0085 10 0 0 0
0.6800 0.0021 0.0087 0 0 0 0
0.6580 0.0012 0.0145 10 0 0 0
0.6740 0.0014 0.0153 10 0 0 0
0.6740 0.0011 0.0148 10 0 0 0
0.6800 0.0005 0.0121 10 0 0 0
0.6740 0.0007 0.0131 0 0 0 0
0.6800 0.0021 0.0159 10 0 0 0
0.6820 0.0008 0.0110 10 0 0 0
0.6820 0.0008 0.0110 10 0 0 0
0.6680 0.0018 0.0059 10 0 0 0
0.6680 0.0018 0.0059 10 0 0 0
0.6760 0.0014 0.0065 0 0 0 0
0.6720 0.0013 0.0082 10 0 0 0
0.6580 0.0005 0.0039 10 0 0 0
0.6780 0.0006 0.0007 10 0 0 0
0.6900 0.0011 0.0010 0 0 0 0
0.6800 0.0019 0.0040 10 0 0 0
0.6720 0.0012 0.0054 10 0 0 0
0.6740 0.0010 0.0082 10 0 0 0
0.6740 0.0010 0.0082 0 0 0 0
0.6820 0.0028 0.0072 10 0 0 0
0.6940 0.0013 0.0028 10 0 0 0
0.6900 0.0022 0.0013 10 0 0 0
0.6940 0.0023 0.0014 10 0 0 0
0.6940 0.0023 0.0014 0 0 0 0
0.6720 0.0024 0.0011 10 0 0 0
0.6980 0.0017 0.0005 10 0 0 0
0.6960 0.0009 0.0014 10 0 0 0
0.6960 0.0009 0.0014 10 0 0 0
