0.6176 0.0054 -0.0400 0 30 0 0
0.6520 0.0049 -0.0406 0 30 0 0
0.6176 0.0047 -0.0417 0 30 0 0
0.5833 0.0047 -0.0417 0 30 0 0
0.5784 0.0048 -0.0413 0 30 0 0
0.6127 0.0043 -0.0412 0 30 0 0
0.6127 0.0042 -0.0405 0 30 0 0
0.6078 0.0042 -0.0405 0 30 0 0
0.6078 0.0041 -0.0406 0 30 0 0
0.5833 0.0039 -0.0402 0 30 0 0
0.5833 0.0039 -0.0402 0 30 0 0
0.5735 0.0037 -0.0391 0 30 0 0
0.6176 0.0039 -0.0380 0 30 0 0
0.5686 0.0043 -0.0382 0 30 0 0
0.5980 0.0042 -0.0357 0 30 0 0
0.5980 0.0042 -0.0357 0 30 0 0
0.6324 0.0044 -0.0356 0 30 0 0
0.6225 0.0047 -0.0338 0 30 0 0
0.6373 0.0046 -0.0338 0 30 0 0
0.6373 0.0043 -0.0328 0 30 0 0
0.6324 0.0031 -0.0328 0 30 0 0
0.6127 0.0023 -0.0331 0 0 0 0
0.6127 0.0027 -0.0328 0 30 0 0
0.5882 0.0037 -0.0315 0 30 0 0
0.6078 0.0034 -0.0322 0 30 0 0
0.5735 0.0031 -0.0321 0 30 0 0
0.6029 0.0028 -0.0332 0 30 0 0
0.6029 0.0028 -0.0332 0 30 0 0
0.5833 0.0033 -0.0320 0 30 0 0
0.5882 0.0041 -0.0327 0 30 0 0
0.5980 0.0045 -0.0329 0 30 0 0
0.6176 0.0050 -0.0294 0 30 0 0
0.6176 0.0050 -0.0294 0 30 0 0
0.5931 0.0049 -0.0301 0 30 0 0
0.6127 0.0050 -0.0292 0 30 0 0
0.5833 0.0045 -0.0296 0 30 0 0
0.5833 0.0045 -0.0296 0 30 0 0
0.6029 0.0042 -0.0283 0 30 0 0
0.6127 0.0045 -0.0270 0 30 0 0
0.6078 0.0054 -0.0277 0 30 0 0
0.6078 0.0054 -0.0277 0 30 0 0
0.5882 0.0061 -0.0298 0 30 0 0
0.5882 0.0061 -0.0298 0 30 0 0
0.5784 0.0058 -0.0330 0 30 0 0
0.5931 0.0051 -0.0338 0 30 0 0
0.5686 0.0049 -0.0330 0 30 0 0
0.6225 0.0049 -0.0327 0 30 0 0
0.5882 0.0050 -0.0324 0 30 0 0
0.5882 0.0050 -0.0318 0 30 0 0
0.6029 0.0049 -0.0306 0 30 0 0
0.6029 0.0049 -0.0306 0 30 0 0
0.5588 0.0054 -0.0313 0 30 0 0
0.5931 0.0053 -0.0288 0 30 0 0
0.5980 0.0051 -0.0288 0 0 0 0
0.5980 0.0050 -0.0265 0 30 0 0
0.5980 0.0051 -0.0253 0 30 0 0
0.5980 0.0054 -0.0248 0 30 0 0
0.6373 0.0053 -0.0253 0 30 0 0
0.6520 0.0053 -0.0267 0 30 0 0
0.6520 0.0053 -0.0268 0 30 0 0
0.6471 0.0053 -0.0268 0 30 0 0
0.5931 0.0055 -0.0257 0 30 0 0
0.6078 0.0054 -0.0254 0 30 0 0
0.6127 0.0053 -0.0252 0 30 0 0
0.6176 0.0050 -0.0244 0 30 0 0
0.5882 0.0047 -0.0248 0 30 0 0
0.5833 0.0049 -0.0246 0 30 0 0
0.5833 0.0049 -0.0246 0 30 0 0
0.6324 0.0054 -0.0250 0 0 0 0
0.6078 0.0045 -0.0266 0 0 0 30
0.6029 0.0047 -0.0305 0 0 0 30
0.5833 0.0041 -0.0333 0 0 0 0
0.6078 0.0039 -0.0324 0 0 0 30
0.6324 0.0046 -0.0274 0 0 0 30
0.5637 0.0043 -0.0254 0 0 0 0
0.6176 0.0032 -0.0228 0 0 0 30
0.5833 0.0033 -0.0199 0 0 0 30
0.5539 0.0032 -0.0172 0 0 0 0
0.5735 0.0034 -0.0156 0 0 0 30
0.5539 0.0038 -0.0141 0 0 0 30
0.5931 0.0036 -0.0135 0 0 0 0
0.6078 0.0038 -0.0126 0 0 0 30
0.6225 0.0039 -0.0116 0 0 0 30
0.6029 0.0043 -0.0109 0 0 0 0
0.6225 0.0044 -0.0106 0 0 0 30
0.5980 0.0042 -0.0074 0 0 0 30
0.5980 0.0043 -0.0071 0 0 0 30
0.6176 0.0042 -0.0066 0 0 0 0
0.5980 0.0046 -0.0040 0 0 0 30
0.6225 0.0042 0.0035 0 0 0 30
0.6225 0.0042 0.0035 0 0 0 0
0.5980 0.0064 0.0052 0 0 0 30
0.5882 0.0067 0.0127 0 0 0 30
0.6029 0.0066 0.0143 0 0 0 0
0.6127 0.0053 0.0223 0 30 0 0
0.6225 0.0049 0.0225 0 30 0 0
0.6373 0.0049 0.0225 0 30 0 0
0.6127 0.0053 0.0229 0 30 0 0
0.6275 0.0056 0.0240 0 30 0 0
0.6078 0.0064 0.0255 0 30 0 0
0.6078 0.0064 0.0255 0 30 0 0
0.5980 0.0064 0.0253 0 30 0 0
0.6029 0.0060 0.0252 0 30 0 0
0.6176 0.0057 0.0250 0 30 0 0
0.6029 0.0055 0.0249 0 0 0 0
0.5980 0.0049 0.0238 0 30 0 0
0.5980 0.0043 0.0254 0 30 0 0
0.5980 0.0043 0.0254 0 30 0 0
0.6225 0.0042 0.0275 0 30 0 0
0.5882 0.0045 0.0274 0 30 0 0
0.6275 0.0045 0.0278 0 0 0 0
0.5882 0.0046 0.0421 0 0 0 -30
0.5539 0.0051 0.0427 0 0 0 -30
0.5931 0.0046 0.0419 0 0 0 -30
0.5784 0.0043 0.0404 0 0 0 0
0.5931 0.0043 0.0402 0 0 0 -30
0.5784 0.0054 0.0384 0 0 0 0
0.5784 0.0056 0.0378 0 0 0 -30
0.6176 0.0047 0.0385 0 0 0 -30
0.5882 0.0046 0.0379 0 0 0 0
0.6176 0.0051 0.0365 0 0 0 -30
0.5784 0.0052 0.0362 0 0 0 -30
0.5784 0.0052 0.0362 0 0 0 0
0.5980 0.0048 0.0382 0 0 0 -30
0.5833 0.0056 0.0343 0 0 0 -30
0.5784 0.0051 0.0342 0 0 0 0
0.5784 0.0052 0.0344 0 30 0 0
0.6275 0.0052 0.0355 0 30 0 0
0.6127 0.0050 0.0342 0 30 0 0
0.5882 0.0053 0.0334 0 30 0 0
0.5882 0.0053 0.0334 0 30 0 0
0.6275 0.0060 0.0308 0 0 0 0
0.5882 0.0053 0.0295 0 30 0 0
0.6373 0.0048 0.0287 0 30 0 0
0.6373 0.0048 0.0287 0 30 0 0
0.6176 0.0046 0.0278 0 30 0 0
0.6225 0.0046 0.0267 0 30 0 0
0.6176 0.0046 0.0260 0 0 0 0
0.5931 0.0044 0.0262 0 30 0 0
0.5637 0.0034 0.0306 0 30 0 0
0.6029 0.0034 0.0303 0 30 0 -30
0.6029 0.0039 0.0319 0 0 0 -30
0.6225 0.0039 0.0319 0 0 0 0
0.6275 0.0047 0.0336 0 0 0 -30
0.6225 0.0051 0.0336 0 0 0 -30
0.6176 0.0054 0.0329 0 0 0 0
0.6078 0.0054 0.0306 0 0 0 -30
0.5980 0.0051 0.0258 0 0 0 0
0.6225 0.0038 0.0231 0 30 0 0
0.6078 0.0036 0.0219 0 30 0 0
0.6078 0.0036 0.0219 0 30 0 0
0.6176 0.0034 0.0182 0 0 0 0
0.5980 0.0032 0.0191 0 0 0 -30
0.6373 0.0036 0.0185 0 0 0 -30
0.6324 0.0039 0.0185 0 0 0 0
0.6422 0.0045 0.0219 0 0 0 -30
0.6373 0.0039 0.0211 0 0 0 -30
0.6176 0.0041 0.0193 0 0 0 0
0.6275 0.0029 0.0174 0 30 0 0
0.6373 0.0036 0.0151 0 30 0 0
0.6176 0.0050 0.0142 0 30 0 0
0.6176 0.0050 0.0142 0 0 0 0
0.6667 0.0045 0.0125 0 30 0 0
0.6029 0.0049 0.0126 0 30 0 0
0.6569 0.0055 0.0126 0 0 0 0
0.6716 0.0053 0.0131 0 30 0 0
0.6275 0.0051 0.0112 0 30 0 0
0.6275 0.0051 0.0112 0 30 0 0
0.6569 0.0049 0.0118 0 0 0 0
0.6471 0.0049 0.0166 0 30 0 0
0.6029 0.0051 0.0224 0 30 0 0
0.5784 0.0055 0.0232 0 30 0 0
0.5784 0.0054 0.0231 0 0 0 0
0.6716 0.0037 0.0254 0 30 0 0
0.6520 0.0040 0.0270 0 30 0 0
0.6520 0.0040 0.0270 0 0 0 0
0.6520 0.0049 0.0279 0 30 0 0
0.6373 0.0042 0.0278 0 30 0 0
0.6275 0.0039 0.0288 0 30 0 0
0.6471 0.0037 0.0283 0 0 0 0
0.6324 0.0040 0.0324 0 30 0 0
0.5735 0.0049 0.0348 0 30 0 0
0.5833 0.0054 0.0343 0 30 0 0
0.5637 0.0058 0.0340 0 0 0 0
0.6275 0.0054 0.0324 0 30 0 0
0.6176 0.0060 0.0314 0 30 0 0
0.6569 0.0058 0.0325 0 0 0 0
0.6618 0.0052 0.0348 0 30 0 0
0.6029 0.0060 0.0391 0 30 0 0
0.6029 0.0060 0.0391 0 0 0 0
0.6324 0.0052 0.0408 0 -30 0 0
0.6225 0.0041 0.0475 0 -30 0 0
0.5931 0.0035 0.0510 0 -30 0 0
0.6176 0.0034 0.0507 0 -30 0 0
0.6176 0.0034 0.0517 0 -30 0 0
0.6275 0.0036 0.0511 0 0 0 0
0.6275 0.0033 0.0522 0 -30 0 0
0.6127 0.0033 0.0508 0 -30 0 0
0.6225 0.0033 0.0507 0 -30 0 0
0.6422 0.0034 0.0508 0 -30 0 0
0.6422 0.0034 0.0508 0 -30 0 0
0.6176 0.0034 0.0505 0 -30 0 0
0.6225 0.0034 0.0540 0 0 0 0
0.6324 0.0030 0.0569 0 -30 0 0
0.5980 0.0028 0.0571 0 -30 0 0
0.6029 0.0026 0.0561 0 -30 0 0
0.5882 0.0029 0.0558 0 -30 0 0
0.5833 0.0035 0.0552 0 -30 0 0
0.5833 0.0035 0.0552 0 -30 0 0
0.6275 0.0042 0.0551 0 0 0 0
0.6078 0.0043 0.0561 0 -30 0 0
0.6225 0.0050 0.0596 0 -30 0 0
0.6225 0.0050 0.0596 0 -30 0 0
0.5833 0.0053 0.0597 0 -30 0 0
0.6275 0.0054 0.0596 0 -30 0 0
0.6373 0.0058 0.0607 0 -30 0 0
0.6373 0.0058 0.0607 0 -30 0 0
0.6029 0.0058 0.0603 0 -30 0 0
0.6029 0.0058 0.0603 0 -30 0 0
0.6176 0.0061 0.0583 0 -30 0 0
0.6176 0.0061 0.0583 0 0 0 0
0.6225 0.0057 0.0551 0 0 0 -30
0.5539 0.0050 0.0531 0 0 0 -30
0.6275 0.0057 0.0554 0 0 0 -30
0.6275 0.0057 0.0554 0 0 0 0
0.5784 0.0059 0.0554 0 0 0 -30
0.6225 0.0062 0.0539 0 0 0 -30
0.6324 0.0058 0.0534 0 0 0 0
0.6275 0.0039 0.0497 0 0 0 -30
0.6127 0.0035 0.0471 0 0 0 -30
0.5833 0.0036 0.0440 0 0 0 0
0.5833 0.0036 0.0440 0 0 0 -30
0.6029 0.0048 0.0406 0 0 0 -30
0.6176 0.0048 0.0406 0 0 0 -30
0.5882 0.0051 0.0433 0 0 0 0
0.5980 0.0050 0.0422 0 0 0 -30
0.5735 0.0053 0.0420 0 0 0 -30
0.5980 0.0055 0.0445 0 0 0 -30
0.6127 0.0058 0.0420 0 0 0 0
0.5735 0.0052 0.0389 0 0 0 -30
0.5931 0.0048 0.0304 0 0 0 -30
0.5980 0.0048 0.0280 0 0 0 0
0.5784 0.0048 0.0260 0 0 0 -30
0.6127 0.0054 0.0272 0 0 0 -30
0.6176 0.0059 0.0266 0 0 0 0
0.5931 0.0053 0.0252 0 0 0 -30
0.5784 0.0051 0.0256 0 0 0 -30
0.5980 0.0048 0.0224 0 0 0 0
0.5735 0.0041 0.0223 0 0 0 -30
0.6225 0.0043 0.0227 0 0 0 0
0.6127 0.0022 0.0201 0 0 0 -30
0.5686 0.0029 0.0149 0 0 0 -30
0.6029 0.0028 0.0189 0 0 0 0
0.6078 0.0035 0.0192 0 0 0 -30
0.6176 0.0037 0.0227 0 0 0 -30
0.6176 0.0035 0.0205 0 0 0 0
0.6176 0.0039 0.0191 0 0 0 -30
0.6176 0.0032 0.0207 0 0 0 -30
0.6176 0.0026 0.0234 0 0 0 0
0.6127 0.0029 0.0099 0 0 0 -30
0.5882 0.0035 0.0046 0 0 0 -30
0.5588 0.0031 0.0046 0 0 0 0
0.5735 0.0032 -0.0002 0 0 0 -30
0.5833 0.0037 -0.0037 0 0 0 -30
0.5833 0.0038 -0.0044 0 0 0 0
0.5833 0.0045 -0.0100 0 0 0 30
0.5784 0.0045 -0.0115 0 0 0 30
0.5784 0.0054 -0.0144 0 0 0 30
0.5686 0.0054 -0.0144 0 0 0 0
0.5882 0.0056 -0.0092 0 0 0 30
0.5931 0.0063 -0.0038 0 0 0 30
0.5882 0.0063 -0.0038 0 0 0 0
0.6029 0.0058 0.0021 0 30 0 0
0.6029 0.0035 0.0039 0 30 0 0
0.5980 0.0041 0.0013 0 30 0 0
0.5882 0.0038 0.0016 0 30 0 0
0.5882 0.0038 0.0016 0 30 0 0
0.6078 0.0041 0.0032 0 30 0 0
0.5882 0.0042 0.0035 0 30 0 0
0.5980 0.0042 0.0025 0 30 0 0
0.5980 0.0042 0.0025 0 30 0 0
0.5833 0.0037 0.0001 0 30 0 0
0.6078 0.0032 0.0004 0 30 0 0
0.6029 0.0028 -0.0041 0 30 0 0
0.5539 0.0030 -0.0042 0 30 0 0
0.5833 0.0034 -0.0014 0 30 0 0
0.5882 0.0038 0.0003 0 30 0 0
0.6078 0.0041 0.0008 0 30 0 0
0.6078 0.0041 0.0008 0 30 0 0
0.5931 0.0037 0.0013 0 30 0 0
0.5882 0.0031 0.0017 0 30 0 0
0.5931 0.0024 0.0032 0 30 0 0
0.5931 0.0024 0.0032 0 30 0 0
0.6127 0.0024 0.0030 0 30 0 0
0.5931 0.0027 0.0030 0 30 0 0
0.5882 0.0037 -0.0026 0 30 0 0
0.5931 0.0043 -0.0019 0 30 0 0
0.6275 0.0045 -0.0004 0 30 0 0
0.6275 0.0045 -0.0004 0 0 0 0
0.6176 0.0043 0.0058 0 30 0 0
0.6127 0.0052 0.0088 0 30 0 0
0.6176 0.0056 0.0104 0 30 0 0
0.6225 0.0050 0.0108 0 30 0 0
0.6127 0.0048 0.0111 0 30 0 0
0.6127 0.0048 0.0111 0 30 0 0
0.6373 0.0044 0.0129 0 30 0 0
0.6225 0.0044 0.0129 0 30 0 30
0.6324 0.0044 0.0122 0 0 0 30
0.5980 0.0046 0.0130 0 0 0 0
0.6324 0.0038 0.0108 0 0 0 30
0.6078 0.0042 0.0140 0 0 0 0
0.6176 0.0048 0.0159 0 30 0 0
0.6471 0.0047 0.0173 0 30 0 0
0.6471 0.0047 0.0173 0 30 0 0
0.6275 0.0045 0.0177 0 30 0 0
0.6127 0.0050 0.0174 0 30 0 0
0.6225 0.0056 0.0172 0 30 0 0
0.6225 0.0056 0.0172 0 30 0 0
0.6275 0.0056 0.0168 0 30 0 0
0.6176 0.0054 0.0173 0 30 0 0
0.6373 0.0052 0.0173 0 30 0 0
0.6373 0.0052 0.0173 0 30 0 0
0.6275 0.0052 0.0185 0 30 0 0
0.6275 0.0052 0.0185 0 30 0 0
0.6422 0.0054 0.0184 0 0 0 0
0.6324 0.0060 0.0183 0 0 0 -30
0.6078 0.0053 0.0170 0 0 0 -30
0.6078 0.0053 0.0170 0 0 0 0
0.6225 0.0050 0.0176 0 0 0 -30
0.6373 0.0053 0.0173 0 0 0 -30
0.6127 0.0049 0.0158 0 0 0 0
0.6471 0.0049 0.0127 0 0 0 -30
0.6422 0.0052 0.0124 0 0 0 -30
0.5980 0.0050 0.0120 0 0 0 -30
0.5833 0.0049 0.0116 0 0 0 0
0.6471 0.0048 0.0101 0 0 0 -30
0.6324 0.0054 0.0105 0 0 0 -30
0.6176 0.0054 0.0088 0 0 0 0
0.6127 0.0040 0.0023 0 0 0 -30
0.5833 0.0035 -0.0026 0 0 0 -30
0.6127 0.0039 -0.0021 0 0 0 0
0.6275 0.0044 0.0022 0 30 0 0
0.6029 0.0037 0.0013 0 30 0 0
0.6029 0.0037 0.0013 0 30 0 0
0.6029 0.0037 0.0013 0 30 0 0
0.6667 0.0034 0.0040 0 30 0 0
0.6176 0.0032 0.0040 0 30 0 0
0.6078 0.0038 0.0046 0 30 0 0
0.6667 0.0039 0.0060 0 30 0 0
0.6667 0.0039 0.0060 0 30 0 0
0.6373 0.0038 0.0061 0 30 0 0
0.6176 0.0037 0.0084 0 30 0 0
0.5882 0.0035 0.0083 0 30 0 0
0.5882 0.0035 0.0083 0 30 0 0
0.6422 0.0034 0.0104 0 30 0 0
0.6225 0.0035 0.0107 0 30 0 0
0.6471 0.0043 0.0126 0 30 0 0
0.6275 0.0050 0.0128 0 30 0 0
0.6373 0.0058 0.0127 0 30 0 0
0.6373 0.0058 0.0127 0 0 0 0
0.6029 0.0061 0.0146 30 0 0 0
0.6324 0.0050 0.0144 30 0 0 0
0.5980 0.0050 0.0144 30 0 0 0
0.6078 0.0045 0.0144 30 0 0 0
0.6029 0.0043 0.0146 30 0 0 0
0.6225 0.0044 0.0154 30 0 0 0
0.6225 0.0044 0.0154 30 0 0 0
0.6225 0.0047 0.0156 0 0 0 0
0.6176 0.0045 0.0183 30 0 0 0
0.6078 0.0046 0.0142 30 0 0 0
0.6225 0.0041 0.0128 30 0 0 0
0.6127 0.0041 0.0128 30 0 0 0
0.6471 0.0037 0.0125 0 0 0 0
0.6275 0.0028 0.0129 0 30 0 0
0.6471 0.0035 0.0115 0 30 0 0
0.7010 0.0036 0.0070 0 30 0 0
