0.6028 0.0008 -0.1641 0 0 0 10
0.5867 0.0010 -0.1729 0 0 0 10
0.5867 0.0010 -0.1729 0 0 0 10
0.5766 0.0010 -0.1740 0 0 0 10
0.5927 0.0006 -0.1736 0 0 0 10
0.5907 0.0001 -0.1737 0 0 0 10
0.5907 0.0001 -0.1737 0 0 0 10
0.6149 0.0003 -0.1736 0 0 0 10
0.6190 0.0003 -0.1734 0 0 0 10
0.5988 0.0006 -0.1705 0 0 0 10
0.6028 0.0003 -0.1708 0 0 0 10
0.6089 0.0003 -0.1695 0 0 0 10
0.6048 -0.0001 -0.1695 0 0 0 10
0.6048 -0.0001 -0.1695 0 0 0 10
0.6028 -0.0004 -0.1671 0 0 0 10
0.5887 -0.0004 -0.1650 0 0 0 10
0.5847 0.0002 -0.1607 0 0 0 10
0.5827 0.0003 -0.1598 0 0 0 10
0.5706 -0.0001 -0.1584 0 0 0 10
0.5706 -0.0001 -0.1584 0 0 0 10
0.5827 -0.0001 -0.1567 0 0 0 10
0.5968 -0.0002 -0.1546 0 0 0 10
0.5927 -0.0004 -0.1516 0 0 0 10
0.5726 -0.0001 -0.1493 0 0 0 10
0.5726 -0.0001 -0.1493 0 0 0 10
0.5988 -0.0003 -0.1462 0 0 0 10
0.5867 -0.0004 -0.1445 0 0 0 10
0.6028 -0.0009 -0.1426 0 0 0 10
0.6129 -0.0009 -0.1407 0 0 0 10
0.6169 -0.0010 -0.1384 0 0 0 10
0.6169 -0.0010 -0.1384 0 0 0 10
0.6190 -0.0006 -0.1346 0 0 0 10
0.6169 -0.0007 -0.1317 0 0 0 10
0.6008 -0.0006 -0.1288 0 0 0 10
0.6190 -0.0007 -0.1245 0 0 0 10
0.6452 -0.0003 -0.1207 0 0 0 10
0.6452 -0.0003 -0.1207 0 0 0 10
0.6310 -0.0002 -0.1192 0 0 0 10
0.6431 0.0001 -0.1167 0 0 0 10
0.6129 0.0006 -0.1148 0 0 0 10
0.6290 0.0004 -0.1126 0 0 0 10
0.6290 0.0004 -0.1126 0 0 0 10
0.6512 0.0002 -0.1073 0 0 0 10
0.6210 0.0002 -0.1073 0 0 0 10
0.6270 -0.0001 -0.1049 0 0 0 10
0.6411 -0.0002 -0.1042 0 0 0 10
0.6351 -0.0009 -0.1028 0 0 0 10
0.6351 -0.0009 -0.1028 0 0 0 10
0.6532 -0.0013 -0.1001 0 0 0 10
0.6472 -0.0012 -0.0984 0 0 0 10
0.6492 -0.0005 -0.0926 0 0 0 10
0.6492 -0.0004 -0.0904 0 0 0 10
0.6391 -0.0004 -0.0916 0 0 0 10
0.6310 -0.0006 -0.0907 0 0 0 10
0.6310 -0.0006 -0.0907 0 0 0 10
0.6673 -0.0002 -0.0863 0 0 0 10
0.6673 -0.0002 -0.0863 0 0 0 10
0.6613 0.0003 -0.0838 0 0 0 10
0.6613 0.0003 -0.0838 0 0 0 10
0.6371 0.0006 -0.0806 0 0 0 10
0.6411 0.0001 -0.0787 0 0 0 10
0.6694 -0.0002 -0.0780 0 0 0 10
0.6532 -0.0003 -0.0766 0 0 0 10
0.6532 -0.0003 -0.0766 0 0 0 10
0.6310 -0.0004 -0.0730 0 0 0 10
0.6472 0.0003 -0.0700 0 0 0 10
0.6653 -0.0000 -0.0708 0 0 0 10
0.6653 -0.0000 -0.0708 0 0 0 10
0.6593 0.0003 -0.0679 0 0 0 10
0.6734 0.0006 -0.0657 0 0 0 10
0.6573 0.0007 -0.0629 0 0 0 10
0.6532 0.0007 -0.0598 0 0 0 10
0.6734 0.0008 -0.0569 0 0 0 10
0.6734 0.0008 -0.0569 0 0 0 10
0.6573 0.0001 -0.0544 0 0 0 10
0.6633 -0.0002 -0.0521 0 0 0 10
0.6633 -0.0002 -0.0521 0 0 0 10
0.6815 0.0005 -0.0457 0 0 0 10
0.6653 0.0007 -0.0437 0 0 0 0
0.6956 -0.0006 -0.0374 0 0 0 10
0.7097 0.0001 -0.0351 0 0 0 10
0.6855 0.0005 -0.0343 0 0 0 0
0.7137 0.0005 -0.0334 0 0 0 10
0.7077 0.0003 -0.0282 0 0 0 0
0.7016 -0.0007 -0.0254 0 0 0 10
0.7157 0.0003 -0.0219 0 0 0 0
0.6956 -0.0011 -0.0166 0 0 0 10
