0.6230 0.0008 -0.1919 0 0 0 10
0.5988 0.0007 -0.2013 0 0 0 10
0.5887 0.0010 -0.2084 0 0 0 10
0.5887 0.0010 -0.2084 0 0 0 10
0.6008 0.0011 -0.2131 0 0 0 10
0.5887 0.0013 -0.2167 0 0 0 10
0.5766 0.0015 -0.2181 0 0 0 10
0.5927 0.0013 -0.2176 0 0 0 10
0.5927 0.0013 -0.2176 0 0 0 10
0.5827 0.0010 -0.2174 0 0 0 10
0.5786 0.0005 -0.2188 0 0 0 10
0.5786 0.0007 -0.2188 0 0 0 10
0.5786 0.0010 -0.2178 0 0 0 10
0.5706 0.0013 -0.2160 0 0 0 10
0.5706 0.0013 -0.2160 0 0 0 10
0.5766 0.0015 -0.2140 0 0 0 10
0.6028 0.0016 -0.2119 0 0 0 10
0.5988 0.0009 -0.2080 0 0 0 10
0.5806 0.0005 -0.2061 0 0 0 10
0.5806 0.0005 -0.2061 0 0 0 10
0.5948 0.0006 -0.2036 0 0 0 10
0.5806 0.0010 -0.2008 0 0 0 10
0.5927 0.0013 -0.1996 0 0 0 10
0.5806 0.0010 -0.1998 0 0 0 10
0.5827 0.0011 -0.1992 0 0 0 10
0.5827 0.0010 -0.1973 0 0 0 10
0.5887 0.0010 -0.1973 0 0 0 10
0.5766 0.0016 -0.1951 0 0 0 10
0.6109 0.0017 -0.1921 0 0 0 10
0.5968 0.0015 -0.1926 0 0 0 10
0.5968 0.0015 -0.1926 0 0 0 10
0.5988 0.0012 -0.1908 0 0 0 10
0.5867 0.0006 -0.1911 0 0 0 10
0.5766 0.0003 -0.1903 0 0 0 10
0.5706 0.0003 -0.1890 0 0 0 10
0.5786 0.0004 -0.1862 0 0 0 10
0.5726 0.0003 -0.1859 0 0 0 10
0.5726 0.0003 -0.1859 0 0 0 10
0.5806 0.0004 -0.1831 0 0 0 10
0.5968 0.0001 -0.1799 0 0 0 10
0.5968 0.0003 -0.1785 0 0 0 10
0.5968 0.0003 -0.1785 0 0 0 10
0.6028 -0.0002 -0.1766 0 0 0 10
0.5907 -0.0003 -0.1736 0 0 0 10
0.5907 -0.0003 -0.1736 0 0 0 10
0.5907 -0.0000 -0.1707 0 0 0 10
0.6109 0.0004 -0.1680 0 0 0 10
0.6109 0.0004 -0.1663 0 0 0 10
0.6109 0.0005 -0.1627 0 0 0 10
0.5988 0.0010 -0.1603 0 0 0 10
0.6028 0.0011 -0.1588 0 0 0 10
0.6028 0.0011 -0.1588 0 0 0 10
0.6109 0.0011 -0.1566 0 0 0 10
0.6028 0.0005 -0.1544 0 0 0 10
0.5968 0.0001 -0.1523 0 0 0 10
0.5968 0.0001 -0.1523 0 0 0 10
0.6109 -0.0001 -0.1499 0 0 0 10
0.6109 -0.0001 -0.1499 0 0 0 10
0.6230 0.0001 -0.1503 0 0 0 10
0.6169 0.0011 -0.1487 0 0 0 10
0.6028 0.0015 -0.1459 0 0 0 10
0.6069 0.0013 -0.1425 0 0 0 10
0.6069 0.0013 -0.1425 0 0 0 10
0.6270 0.0008 -0.1390 0 0 0 10
0.6230 0.0007 -0.1369 0 0 0 10
0.6270 0.0009 -0.1350 0 0 0 10
0.6391 0.0011 -0.1329 0 0 0 10
0.6290 0.0013 -0.1317 0 0 0 10
0.6250 0.0015 -0.1292 0 0 0 10
0.6250 0.0015 -0.1292 0 0 0 10
0.6270 0.0015 -0.1268 0 0 0 10
0.6452 0.0012 -0.1244 0 0 0 10
0.6290 0.0007 -0.1212 0 0 0 10
0.6472 0.0005 -0.1171 0 0 0 10
0.6472 0.0005 -0.1171 0 0 0 10
0.6371 0.0004 -0.1144 0 0 0 10
0.6431 -0.0001 -0.1143 0 0 0 10
0.6391 -0.0005 -0.1121 0 0 0 10
0.6250 -0.0005 -0.1132 0 0 0 10
0.6250 -0.0005 -0.1132 0 0 0 10
0.6310 -0.0004 -0.1098 0 0 0 10
0.6310 -0.0002 -0.1084 0 0 0 10
0.6492 -0.0000 -0.1053 0 0 0 10
0.6411 0.0003 -0.1021 0 0 0 10
0.6331 0.0003 -0.0994 0 0 0 10
0.6552 0.0003 -0.0930 0 0 0 10
0.6552 0.0003 -0.0930 0 0 0 10
0.6431 0.0001 -0.0926 0 0 0 10
0.6472 -0.0004 -0.0896 0 0 0 10
0.6573 -0.0007 -0.0882 0 0 0 10
0.6734 -0.0004 -0.0892 0 0 0 10
0.6774 -0.0001 -0.0869 0 0 0 10
0.6774 -0.0001 -0.0869 0 0 0 10
0.6653 0.0005 -0.0829 0 0 0 10
0.6250 0.0010 -0.0806 0 0 0 10
0.6492 0.0004 -0.0746 0 0 0 10
0.6492 0.0004 -0.0746 0 0 0 10
0.6633 -0.0011 -0.0725 0 0 0 10
0.6633 -0.0011 -0.0725 0 0 0 10
0.6794 -0.0018 -0.0682 0 0 0 10
0.6774 -0.0003 -0.0649 0 0 0 10
0.6532 -0.0003 -0.0649 0 0 0 10
0.6593 0.0000 -0.0633 0 0 0 10
0.6613 0.0001 -0.0625 0 0 0 10
0.6915 0.0000 -0.0609 0 0 0 10
0.6915 0.0000 -0.0609 0 0 0 10
0.6774 -0.0001 -0.0573 0 0 0 10
0.6915 0.0002 -0.0535 0 0 0 10
0.6714 0.0003 -0.0487 0 0 0 10
0.6855 0.0001 -0.0457 0 0 0 10
0.6673 -0.0002 -0.0457 0 0 0 10
0.6593 -0.0003 -0.0445 0 0 0 10
0.6593 -0.0003 -0.0445 0 0 0 10
0.6875 0.0001 -0.0449 0 0 0 10
0.6956 0.0007 -0.0423 0 0 0 10
0.6935 0.0006 -0.0410 0 0 0 10
0.6855 0.0000 -0.0374 0 0 0 10
0.6855 -0.0002 -0.0354 0 0 0 10
0.6976 -0.0007 -0.0330 0 0 0 10
0.6976 -0.0007 -0.0330 0 0 0 10
0.6875 -0.0011 -0.0309 0 0 0 10
0.7077 -0.0013 -0.0269 0 0 0 10
0.6976 -0.0009 -0.0240 0 0 0 10
0.6976 -0.0009 -0.0240 0 0 0 10
0.7036 -0.0007 -0.0199 0 0 0 10
0.6895 -0.0006 -0.0193 0 0 0 10
0.7097 -0.0007 -0.0169 0 0 0 10
0.6855 -0.0006 -0.0147 0 0 0 10
