0.5968 0.0010 -0.1313 0 0 0 10
0.6149 0.0004 -0.1396 0 0 0 10
0.6270 0.0000 -0.1458 0 0 0 10
0.6230 0.0003 -0.1463 0 0 0 10
0.6210 0.0006 -0.1460 0 0 0 10
0.6210 0.0006 -0.1460 0 0 0 10
0.6149 0.0006 -0.1468 0 0 0 10
0.6089 0.0005 -0.1452 0 0 0 10
0.5927 0.0005 -0.1441 0 0 0 10
0.5927 0.0005 -0.1441 0 0 0 10
0.6069 0.0000 -0.1413 0 0 0 10
0.6149 0.0001 -0.1379 0 0 0 10
0.6149 0.0001 -0.1379 0 0 0 10
0.6028 0.0003 -0.1356 0 0 0 10
0.6310 0.0005 -0.1341 0 0 0 10
0.6048 0.0005 -0.1334 0 0 0 10
0.6048 0.0005 -0.1334 0 0 0 10
0.6109 0.0002 -0.1316 0 0 0 10
0.6230 -0.0002 -0.1288 0 0 0 10
0.6290 -0.0003 -0.1265 0 0 0 10
0.6089 0.0001 -0.1248 0 0 0 10
0.6371 0.0002 -0.1216 0 0 0 10
0.6371 0.0002 -0.1216 0 0 0 10
0.6169 0.0006 -0.1199 0 0 0 10
0.6431 0.0011 -0.1186 0 0 0 10
0.6149 0.0011 -0.1163 0 0 0 10
0.6149 0.0011 -0.1163 0 0 0 10
0.6250 0.0001 -0.1138 0 0 0 10
0.6270 -0.0000 -0.1118 0 0 0 10
0.6169 0.0003 -0.1093 0 0 0 10
0.6391 0.0005 -0.1063 0 0 0 10
0.6129 0.0009 -0.1038 0 0 0 10
0.6129 0.0009 -0.1038 0 0 0 10
0.6391 0.0011 -0.1027 0 0 0 10
0.6472 0.0010 -0.1014 0 0 0 10
0.6411 0.0008 -0.0994 0 0 0 10
0.6391 0.0009 -0.0959 0 0 0 10
0.6633 0.0007 -0.0936 0 0 0 10
0.6472 0.0009 -0.0913 0 0 0 10
0.6472 0.0009 -0.0913 0 0 0 10
0.6653 0.0008 -0.0876 0 0 0 10
0.6573 0.0007 -0.0852 0 0 0 10
0.6714 0.0007 -0.0833 0 0 0 10
0.6653 0.0005 -0.0791 0 0 0 10
0.6653 0.0005 -0.0791 0 0 0 10
0.6653 0.0003 -0.0752 0 0 0 10
0.6895 0.0003 -0.0734 0 0 0 10
0.6754 0.0003 -0.0683 0 0 0 10
0.6754 0.0000 -0.0605 0 0 0 10
0.6855 0.0000 -0.0605 0 0 0 10
0.6734 0.0001 -0.0576 0 0 0 10
0.6734 -0.0000 -0.0561 0 0 0 10
0.6593 -0.0001 -0.0536 0 0 0 10
0.6855 -0.0005 -0.0521 0 0 0 10
0.6855 -0.0005 -0.0521 0 0 0 10
0.6815 -0.0008 -0.0496 0 0 0 10
0.6673 -0.0009 -0.0471 0 0 0 10
0.6653 -0.0007 -0.0444 0 0 0 10
0.6653 -0.0007 -0.0444 0 0 0 10
0.6935 -0.0007 -0.0411 0 0 0 10
0.6935 -0.0007 -0.0411 0 0 0 10
0.6956 -0.0005 -0.0372 0 0 0 10
0.7016 -0.0005 -0.0349 0 0 0 10
0.7056 0.0000 -0.0342 0 0 0 10
0.7056 0.0000 -0.0342 0 0 0 10
0.6895 -0.0001 -0.0332 0 0 0 10
0.6734 -0.0009 -0.0317 0 0 0 10
0.6714 -0.0012 -0.0305 0 0 0 10
0.6774 -0.0014 -0.0282 0 0 0 10
0.6774 -0.0014 -0.0282 0 0 0 10
0.7117 -0.0009 -0.0228 0 0 0 10
0.7117 -0.0009 -0.0228 0 0 0 10
0.7238 -0.0012 -0.0192 0 0 0 10
0.7016 -0.0009 -0.0165 0 0 0 0
