0.5484 0.0013 -0.2791 0 0 0 10
0.5323 0.0021 -0.2976 0 0 0 10
0.5363 0.0024 -0.3020 0 0 0 10
0.5383 0.0027 -0.3022 0 0 0 10
0.5585 0.0029 -0.3051 0 0 0 10
0.5585 0.0029 -0.3051 0 0 0 10
0.5504 0.0027 -0.3040 0 0 0 10
0.5645 0.0020 -0.3053 0 0 0 10
0.5444 0.0014 -0.3030 0 0 0 10
0.5444 0.0014 -0.3030 0 0 0 10
0.5544 0.0016 -0.3004 0 0 0 10
0.5383 0.0018 -0.3017 0 0 0 10
0.5383 0.0018 -0.3017 0 0 0 10
0.5484 0.0020 -0.3022 0 0 0 10
0.5726 0.0015 -0.2997 0 0 0 10
0.5423 0.0012 -0.2992 0 0 0 10
0.5423 0.0012 -0.2992 0 0 0 10
0.5302 0.0011 -0.2938 0 0 0 10
0.5302 0.0011 -0.2938 0 0 0 10
0.5544 0.0014 -0.2912 0 0 0 10
0.5484 0.0018 -0.2899 0 0 0 10
0.5484 0.0024 -0.2882 0 0 0 10
0.5544 0.0024 -0.2880 0 0 0 10
0.5544 0.0024 -0.2880 0 0 0 10
0.5685 0.0017 -0.2839 0 0 0 10
0.5746 0.0012 -0.2848 0 0 0 10
0.5685 0.0012 -0.2812 0 0 0 10
0.5685 0.0012 -0.2812 0 0 0 10
0.5706 0.0019 -0.2719 0 0 0 10
0.5706 0.0017 -0.2716 0 0 0 10
0.5585 0.0014 -0.2666 0 0 0 10
0.5706 0.0015 -0.2667 0 0 0 10
0.5504 0.0017 -0.2626 0 0 0 10
0.5504 0.0017 -0.2626 0 0 0 10
0.5685 0.0019 -0.2616 0 0 0 10
0.5685 0.0019 -0.2572 0 0 0 10
0.5605 0.0017 -0.2559 0 0 0 10
0.5847 0.0015 -0.2525 0 0 0 10
0.5786 0.0009 -0.2529 0 0 0 10
0.5645 0.0005 -0.2495 0 0 0 10
0.5645 0.0005 -0.2495 0 0 0 10
0.5484 0.0008 -0.2489 0 0 0 10
0.5685 0.0009 -0.2439 0 0 0 10
0.5565 0.0013 -0.2405 0 0 0 10
0.5565 0.0013 -0.2405 0 0 0 10
0.5786 0.0010 -0.2342 0 0 0 10
0.5786 0.0010 -0.2342 0 0 0 10
0.5444 0.0008 -0.2305 0 0 0 10
0.5645 0.0009 -0.2300 0 0 0 10
0.5726 0.0011 -0.2267 0 0 0 10
0.5766 0.0010 -0.2243 0 0 0 10
0.5948 0.0014 -0.2195 0 0 0 10
0.5706 0.0010 -0.2173 0 0 0 10
0.5706 0.0010 -0.2173 0 0 0 10
0.5847 -0.0000 -0.2137 0 0 0 10
0.5806 -0.0006 -0.2086 0 0 0 10
0.5806 -0.0006 -0.2086 0 0 0 10
0.5726 0.0000 -0.2034 0 0 0 10
0.5766 0.0002 -0.1997 0 0 0 10
0.5806 0.0000 -0.1960 0 0 0 10
0.5806 0.0000 -0.1960 0 0 0 10
0.5927 0.0000 -0.1862 0 0 0 10
0.5867 0.0008 -0.1818 0 0 0 10
0.6028 0.0008 -0.1790 0 0 0 10
0.5827 0.0006 -0.1722 0 0 0 10
0.5786 -0.0002 -0.1667 0 0 0 10
0.5827 -0.0014 -0.1644 0 0 0 10
0.5827 -0.0014 -0.1644 0 0 0 10
0.6129 -0.0020 -0.1597 0 0 0 10
0.5968 -0.0017 -0.1679 0 0 0 10
0.6008 -0.0011 -0.1617 0 0 0 10
0.6190 -0.0005 -0.1626 0 0 0 10
0.6190 -0.0005 -0.1626 0 0 0 10
0.6270 -0.0001 -0.1530 0 0 0 10
0.6270 -0.0001 -0.1530 0 0 0 10
0.6250 0.0000 -0.1432 0 0 0 10
0.6109 -0.0004 -0.1396 0 0 0 10
0.6230 -0.0008 -0.1336 0 0 0 10
0.6230 -0.0008 -0.1336 0 0 0 10
0.6431 -0.0011 -0.1377 0 0 0 10
0.6250 -0.0013 -0.1293 0 0 0 10
0.6290 -0.0011 -0.1287 0 0 0 10
0.6290 -0.0006 -0.1211 0 0 0 10
0.6290 -0.0005 -0.1152 0 0 0 10
0.6472 -0.0002 -0.1112 0 0 0 10
0.6472 -0.0002 -0.1112 0 0 0 10
0.6532 -0.0002 -0.1043 0 0 0 10
0.6673 -0.0007 -0.1020 0 0 0 10
0.6411 -0.0014 -0.0963 0 0 0 10
0.6411 -0.0014 -0.0963 0 0 0 10
0.6411 -0.0018 -0.0937 0 0 0 10
0.6472 -0.0018 -0.0888 0 0 0 10
0.6492 -0.0016 -0.0846 0 0 0 10
0.6492 -0.0016 -0.0759 0 0 0 10
0.6492 -0.0016 -0.0759 0 0 0 10
0.6633 -0.0019 -0.0719 0 0 0 10
0.6734 -0.0020 -0.0673 0 0 0 10
0.6794 -0.0018 -0.0620 0 0 0 10
0.6794 -0.0018 -0.0620 0 0 0 10
0.6835 -0.0020 -0.0609 0 0 0 10
0.6734 -0.0023 -0.0571 0 0 0 10
0.7016 -0.0019 -0.0555 0 0 0 10
0.6976 -0.0007 -0.0461 0 0 0 10
0.7016 -0.0009 -0.0428 0 0 0 10
0.7056 -0.0007 -0.0392 0 0 0 10
0.7056 -0.0007 -0.0392 0 0 0 10
0.6835 -0.0006 -0.0337 0 0 0 10
0.7016 -0.0011 -0.0325 0 0 0 0
0.7016 -0.0011 -0.0152 0 0 0 10
