0.4885 0.0062 0.0175 30 0 0 0
0.5049 0.0078 0.0151 30 0 0 0
0.4885 0.0084 0.0134 30 0 0 0
0.4820 0.0083 0.0132 30 0 0 0
0.4984 0.0079 0.0128 30 0 0 0
0.4984 0.0079 0.0128 30 0 0 0
0.5049 0.0077 0.0107 30 0 0 0
0.4754 0.0078 0.0103 30 0 0 0
0.4951 0.0080 0.0104 30 0 0 0
0.4951 0.0080 0.0104 30 0 0 0
0.4656 0.0083 0.0102 30 0 0 0
0.4787 0.0084 0.0097 30 0 0 0
0.4951 0.0082 0.0096 30 0 0 0
0.4787 0.0083 0.0107 30 0 0 0
0.4754 0.0086 0.0114 30 0 0 0
0.5082 0.0085 0.0117 30 0 0 0
0.4885 0.0088 0.0117 30 0 0 0
0.4984 0.0089 0.0116 30 0 0 0
0.4984 0.0089 0.0116 30 0 0 0
0.4918 0.0089 0.0109 30 0 0 0
0.4426 0.0085 0.0110 30 0 0 0
0.4492 0.0078 0.0111 30 0 0 0
0.4689 0.0076 0.0114 30 0 0 0
0.4689 0.0076 0.0114 30 0 0 0
0.4590 0.0084 0.0107 30 0 0 0
0.4852 0.0083 0.0104 30 0 0 0
0.5016 0.0087 0.0112 30 0 0 0
0.4820 0.0091 0.0114 30 0 0 0
0.4623 0.0093 0.0116 30 0 0 0
0.4623 0.0093 0.0116 30 0 0 0
0.4820 0.0089 0.0119 30 0 0 0
0.4689 0.0086 0.0114 30 0 0 0
0.4689 0.0086 0.0114 30 0 0 0
0.4623 0.0093 0.0117 30 0 0 0
0.4557 0.0092 0.0118 30 0 0 0
0.4623 0.0092 0.0119 30 0 0 0
0.4623 0.0092 0.0119 30 0 0 0
0.4820 0.0093 0.0109 30 0 0 0
0.4754 0.0090 0.0107 30 0 0 0
0.4885 0.0090 0.0108 30 0 0 0
0.4787 0.0081 0.0107 30 0 0 0
0.4623 0.0073 0.0094 30 0 0 0
0.4754 0.0074 0.0095 30 0 0 0
0.4656 0.0081 0.0090 30 0 0 0
0.4656 0.0081 0.0090 30 0 0 0
0.4656 0.0080 0.0083 30 0 0 0
0.4656 0.0078 0.0085 30 0 0 0
0.4656 0.0078 0.0085 30 0 0 0
0.4820 0.0082 0.0088 30 0 0 0
0.4852 0.0083 0.0082 30 0 0 0
0.4656 0.0083 0.0085 30 0 0 0
0.4656 0.0083 0.0085 30 0 0 0
0.4656 0.0084 0.0106 30 0 0 0
0.4656 0.0084 0.0106 30 0 0 0
0.4787 0.0083 0.0107 30 0 0 0
0.4787 0.0083 0.0107 30 0 0 0
0.4590 0.0081 0.0111 30 0 0 0
0.4820 0.0080 0.0115 30 0 0 0
0.4754 0.0082 0.0102 30 0 0 0
0.4918 0.0082 0.0104 30 0 0 0
0.4918 0.0078 0.0114 30 0 0 0
0.4885 0.0078 0.0114 30 0 0 0
0.4885 0.0078 0.0114 30 0 0 0
0.4918 0.0078 0.0104 30 0 0 0
0.4984 0.0073 0.0119 30 0 0 0
0.4984 0.0073 0.0119 30 0 0 0
0.4885 0.0074 0.0118 30 0 0 0
0.4885 0.0074 0.0118 30 0 0 0
0.4918 0.0078 0.0113 30 0 0 0
0.4918 0.0085 0.0114 30 0 0 0
0.4787 0.0088 0.0113 30 0 0 0
0.4787 0.0088 0.0113 30 0 0 0
0.4852 0.0095 0.0117 0 0 0 0
0.4885 0.0074 0.0013 30 0 0 0
0.5115 0.0070 0.0001 30 0 0 0
0.5213 0.0074 -0.0008 30 0 0 0
0.5082 0.0078 0.0004 30 0 0 0
0.5082 0.0078 0.0004 30 0 0 0
0.5016 0.0077 0.0005 30 0 0 0
0.5311 0.0078 -0.0007 30 0 0 0
0.5344 0.0080 -0.0008 30 0 0 0
0.5279 0.0084 0.0007 30 0 0 0
0.5279 0.0084 0.0007 30 0 0 0
0.5607 0.0083 0.0013 30 0 0 0
0.5213 0.0083 0.0015 30 0 0 0
0.5180 0.0081 0.0017 30 0 0 0
0.5180 0.0081 0.0017 30 0 0 0
0.5279 0.0078 0.0017 30 0 0 0
0.5279 0.0076 0.0028 30 0 0 0
0.5279 0.0074 0.0037 30 0 0 0
0.5508 0.0074 0.0058 30 0 0 0
0.5279 0.0078 0.0058 30 0 0 0
0.5148 0.0084 0.0059 30 0 0 0
0.5148 0.0084 0.0059 30 0 0 0
0.5279 0.0082 0.0058 30 0 0 0
0.5410 0.0082 0.0037 30 0 0 0
0.5115 0.0077 0.0037 30 0 0 0
0.5115 0.0077 0.0037 30 0 0 0
0.5607 0.0072 0.0022 30 0 0 0
0.5508 0.0069 0.0022 30 0 0 0
0.5082 0.0067 0.0031 30 0 0 0
0.5082 0.0067 0.0031 30 0 0 0
0.5180 0.0080 0.0028 30 0 0 0
0.5180 0.0080 0.0028 30 0 0 0
0.4918 0.0079 0.0031 30 0 0 0
0.5443 0.0077 0.0017 30 0 0 0
0.5311 0.0076 0.0001 30 0 0 0
0.5311 0.0076 0.0001 30 0 0 0
0.5377 0.0077 -0.0001 30 0 0 0
0.5279 0.0079 -0.0000 30 0 0 0
0.5049 0.0083 -0.0004 30 0 0 0
0.5049 0.0083 -0.0004 0 0 0 0
0.5082 0.0094 0.0056 30 0 0 0
0.4885 0.0104 0.0344 30 0 0 0
0.4951 0.0101 0.0461 30 0 0 0
0.4951 0.0101 0.0461 30 0 0 0
0.4951 0.0097 0.0384 30 0 0 0
0.4951 0.0095 0.0379 30 0 0 0
0.4984 0.0094 0.0321 30 0 0 0
0.4984 0.0094 0.0321 30 0 0 0
0.5049 0.0095 0.0285 30 0 0 0
0.5016 0.0094 0.0283 30 0 0 0
0.5344 0.0092 0.0251 30 0 0 0
0.5213 0.0090 0.0246 30 0 0 0
0.4984 0.0089 0.0226 30 0 0 0
0.4984 0.0089 0.0226 30 0 0 0
0.5016 0.0084 0.0218 30 0 0 0
0.5082 0.0084 0.0218 30 0 0 0
0.4918 0.0085 0.0217 30 0 0 0
0.4918 0.0085 0.0217 30 0 0 0
0.4984 0.0089 0.0374 30 0 0 0
0.4984 0.0085 0.0469 30 0 0 0
0.4918 0.0084 0.0470 30 0 0 0
0.5049 0.0084 0.0412 30 0 0 0
0.4918 0.0085 0.0405 30 0 0 0
0.4918 0.0086 0.0371 0 0 0 0
0.4623 0.0070 0.0326 30 0 0 0
0.4721 0.0082 0.0346 30 0 0 0
0.4852 0.0086 0.0298 30 0 0 0
0.4852 0.0086 0.0298 30 0 0 0
0.4951 0.0086 0.0293 30 0 0 0
0.4852 0.0087 0.0304 30 0 0 0
0.4656 0.0084 0.0306 30 0 0 0
0.4721 0.0081 0.0304 30 0 0 0
0.4721 0.0081 0.0304 30 0 0 0
0.4852 0.0075 0.0298 30 0 0 0
0.5082 0.0074 0.0292 30 0 0 0
0.4852 0.0071 0.0288 30 0 0 0
0.4852 0.0071 0.0288 30 0 0 0
0.5049 0.0076 0.0287 30 0 0 0
0.5115 0.0081 0.0293 30 0 0 0
0.4951 0.0089 0.0288 30 0 0 0
0.5016 0.0093 0.0291 30 0 0 0
0.5213 0.0091 0.0296 30 0 0 0
0.4951 0.0087 0.0291 30 30 0 0
0.4951 0.0087 0.0291 30 30 0 0
0.5148 0.0083 0.0289 30 30 0 0
0.5016 0.0080 0.0271 0 30 0 0
0.4885 0.0078 0.0271 0 30 0 0
0.4951 0.0076 0.0271 0 30 0 0
0.5213 0.0076 0.0282 0 30 0 0
0.5279 0.0081 0.0284 0 30 0 0
0.5279 0.0081 0.0284 0 30 0 0
0.5016 0.0084 0.0318 0 30 0 0
0.4852 0.0083 0.0318 0 30 0 0
0.4787 0.0084 0.0347 0 30 0 0
0.4721 0.0083 0.0382 0 30 0 0
0.4721 0.0081 0.0380 0 30 0 0
0.4918 0.0081 0.0380 0 30 0 0
0.4885 0.0081 0.0381 0 30 0 0
0.5213 0.0081 0.0376 0 30 0 0
0.4951 0.0081 0.0371 0 30 0 0
0.4951 0.0081 0.0371 0 30 0 0
0.5049 0.0086 0.0344 0 30 0 0
0.4787 0.0086 0.0348 0 30 0 0
0.4787 0.0087 0.0347 30 30 0 0
0.4852 0.0087 0.0353 30 30 0 0
0.4721 0.0086 0.0351 30 30 0 0
0.4721 0.0086 0.0351 30 30 0 0
0.4787 0.0090 0.0346 30 30 0 0
0.4689 0.0094 0.0348 30 30 0 0
0.4984 0.0093 0.0341 30 30 0 0
0.4984 0.0093 0.0341 30 30 0 0
0.5213 0.0084 0.0333 30 30 0 0
0.4951 0.0084 0.0333 30 30 0 0
0.4951 0.0084 0.0333 30 30 0 0
0.4984 0.0087 0.0332 30 30 0 0
0.4885 0.0084 0.0331 30 30 0 0
0.5246 0.0085 0.0360 30 30 0 0
0.5246 0.0085 0.0360 30 30 0 0
0.5311 0.0081 0.0369 30 30 0 0
0.4885 0.0081 0.0370 30 30 0 0
0.5246 0.0083 0.0376 30 30 0 0
0.4918 0.0087 0.0372 30 30 0 0
0.4984 0.0085 0.0381 30 30 0 0
0.5049 0.0086 0.0375 30 30 0 0
0.5049 0.0086 0.0375 30 30 0 0
0.4885 0.0086 0.0356 30 30 0 0
0.4918 0.0092 0.0347 30 30 0 0
0.4918 0.0092 0.0347 30 30 0 0
0.5082 0.0093 0.0343 30 30 0 0
0.5180 0.0099 0.0373 30 30 0 0
0.4721 0.0101 0.0367 30 30 0 0
0.4721 0.0101 0.0367 30 30 0 0
0.5016 0.0106 0.0382 30 30 0 0
0.4918 0.0107 0.0376 30 30 0 0
0.4689 0.0111 0.0387 30 30 0 0
0.4689 0.0111 0.0387 30 0 0 0
0.4656 0.0114 0.0347 30 0 0 0
0.4656 0.0114 0.0347 30 0 0 0
0.4951 0.0112 0.0352 30 0 0 0
0.4984 0.0104 0.0364 30 0 0 0
0.4984 0.0104 0.0364 30 0 0 0
0.5279 0.0110 0.0361 30 0 0 0
0.4787 0.0115 0.0393 30 0 0 0
0.4951 0.0117 0.0391 30 0 0 0
0.5148 0.0118 0.0411 30 0 0 0
0.5148 0.0118 0.0411 30 0 0 0
0.5279 0.0112 0.0368 30 0 0 0
0.5279 0.0108 0.0331 30 0 0 0
0.5279 0.0108 0.0331 30 0 0 0
0.4984 0.0106 0.0329 30 0 0 0
0.4984 0.0104 0.0324 30 0 0 0
0.4984 0.0109 0.0297 30 0 0 0
0.4984 0.0114 0.0274 30 0 0 0
0.5311 0.0115 0.0271 30 0 0 0
0.5311 0.0115 0.0271 30 0 0 0
0.4951 0.0111 0.0292 30 0 0 0
0.5049 0.0110 0.0296 30 0 0 0
0.5148 0.0110 0.0317 30 0 0 0
0.5148 0.0110 0.0317 30 0 0 0
0.5082 0.0110 0.0317 30 0 0 0
0.5148 0.0108 0.0312 30 0 0 0
0.5213 0.0106 0.0313 30 0 0 0
0.5148 0.0107 0.0298 30 0 0 0
0.5115 0.0108 0.0300 30 0 0 0
0.4885 0.0110 0.0301 30 0 0 0
0.4885 0.0110 0.0301 30 0 0 0
0.4721 0.0115 0.0297 30 0 0 0
0.5213 0.0121 0.0260 30 0 0 0
0.5279 0.0121 0.0260 30 0 0 0
0.5246 0.0119 0.0263 30 0 0 0
0.5475 0.0116 0.0273 30 0 0 0
0.5246 0.0112 0.0274 30 0 0 0
0.5082 0.0112 0.0296 30 0 0 0
0.5016 0.0113 0.0299 30 0 0 0
0.4951 0.0114 0.0304 30 0 0 0
0.4951 0.0114 0.0304 30 0 0 0
0.4951 0.0116 0.0306 30 0 0 0
0.4918 0.0116 0.0287 30 0 0 0
0.4787 0.0113 0.0288 30 0 0 0
0.4787 0.0113 0.0288 30 0 0 0
0.5115 0.0110 0.0282 30 0 0 0
0.5016 0.0106 0.0284 30 0 0 0
0.4689 0.0105 0.0291 30 0 0 0
0.5082 0.0111 0.0300 30 0 0 0
0.5082 0.0111 0.0300 30 0 0 0
0.4787 0.0117 0.0298 30 0 0 0
0.4852 0.0121 0.0297 30 0 0 0
0.4951 0.0122 0.0306 30 0 0 0
0.4852 0.0119 0.0291 30 0 0 0
0.4852 0.0119 0.0291 30 0 0 0
0.5148 0.0120 0.0287 30 0 0 0
0.5016 0.0121 0.0291 30 0 0 0
0.5016 0.0121 0.0291 30 0 0 0
0.5148 0.0118 0.0295 30 0 0 0
0.5082 0.0118 0.0296 30 0 0 0
0.5049 0.0122 0.0316 30 0 0 0
0.5148 0.0128 0.0316 30 0 0 0
0.5213 0.0132 0.0337 30 0 0 0
0.5213 0.0132 0.0337 30 0 0 0
0.5148 0.0136 0.0336 30 0 0 0
0.5574 0.0137 0.0332 30 0 0 0
0.5344 0.0135 0.0310 30 0 0 0
0.5082 0.0134 0.0312 30 0 0 0
0.5082 0.0134 0.0312 30 0 0 0
0.5148 0.0129 0.0305 30 0 0 0
0.5082 0.0120 0.0310 30 0 0 0
0.5082 0.0116 0.0315 30 0 0 0
0.4918 0.0115 0.1875 30 0 0 0
0.4918 0.0115 0.1875 30 0 0 0
0.4951 0.0114 0.1881 30 0 0 0
0.4918 0.0118 0.1885 30 0 0 0
0.4984 0.0118 0.1890 30 0 0 0
0.4984 0.0116 0.1895 30 0 0 0
0.4951 0.0116 0.1895 30 0 0 0
0.4852 0.0116 0.1900 30 0 0 0
0.4951 0.0109 0.1905 30 0 0 0
0.5016 0.0106 0.1909 30 0 0 0
0.5016 0.0106 0.1909 30 0 0 0
0.4820 0.0105 0.1909 30 0 0 0
0.4918 0.0107 0.1612 30 0 0 0
0.5115 0.0109 0.1611 30 0 0 0
0.5180 0.0110 0.1390 30 0 0 0
0.4787 0.0112 0.1397 30 0 0 0
0.4951 0.0114 0.1185 30 0 0 0
0.5115 0.0113 0.1193 30 0 0 0
0.4820 0.0111 0.1055 30 0 0 0
0.4820 0.0111 0.1055 30 0 0 0
0.4852 0.0107 0.1059 30 0 0 0
0.4689 0.0102 0.0938 30 0 0 0
0.4721 0.0096 0.0933 30 0 0 0
0.4787 0.0090 0.0832 30 0 0 0
0.5115 0.0085 0.0756 30 0 0 0
0.4656 0.0080 0.0756 30 0 0 0
0.4689 0.0074 0.0694 30 0 0 0
0.4852 0.0068 0.0680 30 0 0 0
0.4689 0.0064 0.0614 30 0 0 0
0.4689 0.0064 0.0614 30 0 0 0
0.4557 0.0069 0.0602 0 0 0 0
0.4951 0.0062 0.0456 30 0 0 0
0.4951 0.0056 0.0460 30 0 0 0
0.4984 0.0074 0.0475 30 0 0 0
0.4754 0.0077 0.0458 30 0 0 0
0.4885 0.0078 0.0453 30 0 0 0
0.4852 0.0076 0.0430 30 0 0 0
0.4590 0.0071 0.0427 30 0 0 0
0.4590 0.0071 0.0427 30 0 0 0
0.4852 0.0066 0.0395 30 0 0 0
0.5049 0.0063 0.0391 30 0 0 0
0.4918 0.0066 0.0398 30 0 0 0
0.4754 0.0069 0.0395 30 0 0 0
0.4984 0.0074 0.0392 30 0 0 0
0.4492 0.0075 0.0377 30 0 0 0
0.4787 0.0076 0.0375 30 0 0 0
0.4885 0.0077 0.0369 30 0 0 0
0.4623 0.0080 0.0365 30 0 0 0
0.4623 0.0080 0.0365 30 0 0 0
0.4984 0.0082 0.0383 30 0 0 0
0.4984 0.0081 0.0383 30 0 0 0
0.4918 0.0075 0.0382 30 0 0 0
0.4885 0.0070 0.0388 30 0 0 0
0.4984 0.0069 0.0395 30 0 0 0
0.4820 0.0069 0.0398 30 0 0 0
0.4820 0.0069 0.0398 30 0 0 0
0.4852 0.0085 0.0380 30 0 0 0
0.4918 0.0085 0.0380 30 0 0 0
0.4951 0.0091 0.0364 30 0 0 0
0.5016 0.0096 0.0354 30 0 0 0
0.4918 0.0098 0.0353 30 0 0 0
0.4918 0.0097 0.0354 30 0 0 0
0.4918 0.0097 0.0354 30 0 0 0
0.5213 0.0096 0.0348 30 0 0 0
0.4852 0.0092 0.0341 30 0 0 0
0.5180 0.0095 0.0340 30 0 0 0
0.5180 0.0095 0.0340 30 0 0 0
0.5410 0.0095 0.0338 30 0 0 0
0.5049 0.0093 0.0342 30 0 0 0
0.5246 0.0091 0.0333 30 0 0 0
0.5377 0.0093 0.0325 30 0 0 0
0.5574 0.0097 0.0352 30 0 0 0
0.5246 0.0097 0.0356 30 0 0 0
0.5246 0.0097 0.0356 30 0 0 0
0.5311 0.0093 0.0361 30 0 0 0
0.5311 0.0093 0.0361 30 0 0 0
0.4984 0.0092 0.0400 30 0 0 0
0.5115 0.0093 0.0382 30 0 0 0
0.5213 0.0097 0.0378 30 0 0 0
0.5049 0.0100 0.0367 30 0 0 0
0.5049 0.0100 0.0367 30 0 0 0
0.5311 0.0098 0.0342 30 0 0 0
0.5311 0.0098 0.0342 30 0 0 0
0.5246 0.0091 0.0342 30 0 0 0
0.5279 0.0086 0.0362 30 0 0 0
0.5213 0.0081 0.0361 30 0 0 0
0.4951 0.0081 0.0427 30 0 0 0
0.4951 0.0081 0.0427 30 0 0 0
0.5279 0.0082 0.0429 30 0 0 0
0.5049 0.0082 0.0398 30 0 0 0
0.5213 0.0084 0.0360 30 0 0 0
0.5311 0.0090 0.0356 30 0 0 0
0.5115 0.0094 0.0355 30 0 0 0
0.5115 0.0094 0.0355 30 0 0 0
0.5344 0.0097 0.0372 30 0 0 0
0.5246 0.0095 0.0468 30 0 0 0
0.5213 0.0092 0.0470 30 0 0 0
0.5049 0.0087 0.0561 30 0 0 0
0.5049 0.0087 0.0561 30 0 0 0
0.5180 0.0079 0.0489 30 0 0 0
0.5377 0.0079 0.0489 30 0 0 0
0.5279 0.0082 0.0490 30 0 0 0
0.5279 0.0082 0.0490 30 0 0 0
0.5180 0.0080 0.0453 30 0 0 0
0.5180 0.0080 0.0453 30 0 0 0
0.5311 0.0077 0.0411 30 0 0 0
0.4984 0.0075 0.0378 30 0 0 0
0.5148 0.0074 0.0378 30 0 0 0
0.5115 0.0074 0.0372 30 0 0 0
0.5115 0.0074 0.0372 30 0 0 0
0.5049 0.0075 0.0320 30 0 0 0
0.5311 0.0078 0.0288 30 0 0 0
0.5115 0.0080 0.0292 30 0 0 0
0.5377 0.0079 0.0238 30 0 0 0
0.5377 0.0079 0.0238 30 0 0 0
0.5672 0.0081 0.0201 30 0 0 0
0.5279 0.0078 0.0155 30 0 0 0
0.5279 0.0078 0.0155 30 0 0 0
0.5279 0.0075 0.0159 30 0 0 0
0.5279 0.0075 0.0107 30 0 0 0
0.5148 0.0074 0.0105 30 0 0 0
0.5148 0.0074 0.0105 30 0 0 0
0.5180 0.0075 0.0054 30 0 0 0
0.5541 0.0079 0.0048 30 0 0 0
0.5475 0.0082 0.0050 30 0 0 0
0.5475 0.0082 0.0050 30 0 0 0
0.5410 0.0085 0.0052 30 0 0 0
0.5574 0.0083 0.0073 30 0 0 0
0.5705 0.0079 0.0072 30 0 0 0
0.5508 0.0076 0.0073 30 0 0 0
0.5148 0.0079 0.0080 30 0 0 0
0.5148 0.0079 0.0080 30 0 0 0
0.5639 0.0079 0.0085 30 0 0 0
0.5279 0.0081 0.0088 30 0 0 0
0.5443 0.0081 0.0090 30 0 0 0
0.5443 0.0081 0.0090 30 0 0 0
0.5344 0.0081 0.0090 30 0 0 0
0.5311 0.0081 0.0070 30 0 0 0
0.5344 0.0079 0.0075 30 0 0 0
0.5148 0.0083 0.0049 30 0 0 0
0.5049 0.0087 0.0050 30 0 0 0
0.5082 0.0087 0.0081 30 0 0 0
0.5082 0.0087 0.0081 30 0 0 0
0.4918 0.0087 0.0098 30 0 0 0
0.5180 0.0086 0.0103 30 0 0 0
0.5377 0.0080 0.0117 30 0 0 0
0.5377 0.0080 0.0117 30 0 0 0
0.5213 0.0078 0.0124 30 0 0 0
0.5082 0.0074 0.0118 30 0 0 0
0.5082 0.0073 0.0130 30 0 0 0
0.4820 0.0071 0.0155 30 0 0 0
0.4951 0.0073 0.0162 30 0 0 0
0.4951 0.0072 0.0180 30 0 0 0
0.4918 0.0072 0.0180 30 0 0 0
0.5082 0.0069 0.0188 30 0 0 0
0.5082 0.0071 0.0212 30 0 0 0
0.5082 0.0071 0.0214 30 0 0 0
0.5082 0.0071 0.0214 30 0 0 0
0.5279 0.0072 0.0233 30 0 0 0
0.5180 0.0075 0.0263 30 0 0 0
0.5180 0.0074 0.0271 30 0 0 0
0.5180 0.0074 0.0271 30 0 0 0
0.5410 0.0073 0.0291 30 0 0 0
0.5148 0.0068 0.0295 30 0 0 0
0.4885 0.0063 0.0301 30 0 0 0
0.4918 0.0063 0.0303 30 0 0 0
0.5049 0.0068 0.0294 30 0 0 0
0.5016 0.0074 0.0294 30 0 0 0
0.4918 0.0075 0.0286 30 0 0 0
0.5311 0.0072 0.0290 30 0 0 0
0.5311 0.0072 0.0290 30 0 0 0
0.5115 0.0070 0.0286 30 0 0 0
0.5148 0.0069 0.0288 30 0 0 0
0.5279 0.0075 0.0291 30 0 0 0
0.4885 0.0086 0.0290 30 0 0 0
0.4885 0.0086 0.0290 30 0 0 0
0.4820 0.0086 0.0317 30 0 0 0
0.4820 0.0086 0.0317 30 0 0 0
0.4787 0.0086 0.0323 30 0 0 0
0.4754 0.0083 0.0328 30 0 0 0
0.4721 0.0081 0.0328 30 0 0 0
0.4623 0.0077 0.0339 30 0 0 0
0.4623 0.0077 0.0339 30 0 0 0
0.5016 0.0081 0.0341 30 0 0 0
0.5049 0.0082 0.0325 30 0 0 0
0.5443 0.0079 0.0327 30 0 0 0
0.4787 0.0082 0.0336 30 0 0 0
0.4787 0.0082 0.0336 30 0 0 0
0.5115 0.0081 0.0335 30 0 0 0
0.5115 0.0081 0.0330 30 0 0 0
0.5213 0.0079 0.0330 30 0 0 0
0.4852 0.0077 0.0340 30 30 0 0
0.4852 0.0077 0.0340 0 30 0 0
0.5016 0.0076 0.0344 0 30 0 0
0.4984 0.0076 0.0339 0 30 0 0
0.4984 0.0076 0.0339 0 30 0 0
0.4852 0.0078 0.0365 0 30 0 0
0.4623 0.0082 0.0358 0 30 0 0
0.4623 0.0082 0.0385 0 30 0 0
0.4918 0.0084 0.0400 0 30 0 0
0.4918 0.0084 0.0400 0 30 0 0
0.4689 0.0083 0.0392 0 30 0 0
0.4984 0.0086 0.0373 0 30 0 0
0.4951 0.0086 0.0368 0 30 0 0
0.4721 0.0090 0.0333 0 30 0 0
0.4721 0.0090 0.0333 0 30 0 0
0.4885 0.0092 0.0335 0 30 0 0
0.4557 0.0091 0.0319 0 30 0 0
0.4918 0.0090 0.0317 0 30 0 0
0.4918 0.0090 0.0317 0 30 0 0
0.4623 0.0090 0.0328 0 30 0 0
0.4918 0.0091 0.0325 0 30 0 0
0.4787 0.0090 0.0327 0 30 0 0
0.4787 0.0090 0.0327 0 30 0 0
0.5082 0.0095 0.0334 0 30 0 0
0.5082 0.0099 0.0336 0 30 0 0
0.5016 0.0105 0.0345 0 30 0 0
0.5016 0.0103 0.0346 0 30 0 0
0.5115 0.0099 0.0351 0 30 0 0
0.5148 0.0097 0.0353 0 30 0 0
0.5148 0.0096 0.0358 0 30 0 0
0.5016 0.0088 0.0355 0 30 0 0
0.5311 0.0085 0.0368 0 30 0 0
0.5082 0.0078 0.0333 0 30 0 0
0.5148 0.0077 0.0330 0 30 0 0
0.5148 0.0077 0.0330 0 30 0 0
0.5082 0.0078 0.0306 0 30 0 0
0.5279 0.0072 0.0302 0 30 0 0
0.5148 0.0066 0.0302 0 30 0 0
0.4951 0.0062 0.0303 0 30 0 0
0.5082 0.0058 0.0325 0 30 0 0
0.4918 0.0057 0.0324 0 30 0 0
0.4885 0.0056 0.0336 0 30 0 0
0.4885 0.0056 0.0336 0 30 0 0
0.5016 0.0060 0.0332 0 30 0 0
0.5082 0.0064 0.0331 0 30 0 0
0.4951 0.0066 0.0326 0 30 0 0
0.5344 0.0068 0.0310 0 30 0 0
0.5082 0.0071 0.0305 0 30 0 0
0.5344 0.0073 0.0300 0 30 0 0
0.5344 0.0073 0.0300 0 30 0 0
0.5180 0.0074 0.0288 0 30 0 0
0.5180 0.0074 0.0288 0 30 0 0
0.4885 0.0075 0.0284 0 30 0 0
0.4951 0.0077 0.0280 0 30 0 0
0.5082 0.0075 0.0282 0 30 0 0
0.5082 0.0078 0.0282 0 30 0 0
0.5016 0.0078 0.0282 0 30 0 0
0.4885 0.0081 0.0281 0 30 0 0
0.5016 0.0082 0.0284 0 30 0 0
0.4885 0.0081 0.0269 0 30 0 0
0.4885 0.0081 0.0269 0 30 0 0
0.4951 0.0080 0.0265 0 30 0 0
0.4951 0.0080 0.0265 0 30 0 0
0.5148 0.0081 0.0272 0 30 0 0
0.5246 0.0080 0.0275 0 30 0 0
0.5115 0.0081 0.0280 0 30 0 0
0.5115 0.0081 0.0280 0 30 0 0
0.5082 0.0082 0.0282 0 30 0 0
0.5213 0.0084 0.0275 0 30 0 0
0.4852 0.0083 0.0279 0 30 0 0
0.4852 0.0083 0.0279 0 30 0 0
0.5082 0.0083 0.0291 0 30 0 0
0.5148 0.0087 0.0297 0 30 0 0
0.4984 0.0086 0.0294 0 30 0 0
0.5246 0.0084 0.0297 0 30 0 0
0.5246 0.0084 0.0297 0 30 0 0
0.5049 0.0077 0.0299 0 30 0 0
0.5082 0.0078 0.0299 0 30 0 0
0.5115 0.0078 0.0328 0 30 0 0
0.5213 0.0079 0.0329 0 30 0 0
0.5279 0.0083 0.0357 0 30 0 0
0.5279 0.0083 0.0357 0 30 0 0
0.5246 0.0088 0.0349 0 30 0 0
0.5246 0.0086 0.0346 0 30 0 0
0.5180 0.0085 0.0378 0 30 0 0
0.5180 0.0085 0.0378 0 30 0 0
0.4852 0.0087 0.0374 0 30 0 0
0.5410 0.0089 0.0464 0 30 0 0
0.5311 0.0089 0.0465 0 0 0 0
0.5311 0.0087 0.0520 30 0 0 0
0.5344 0.0082 0.0450 30 0 0 0
0.4885 0.0077 0.0446 30 0 0 0
0.4885 0.0077 0.0446 30 0 0 0
0.5082 0.0075 0.0429 30 0 0 0
0.5082 0.0075 0.0429 30 0 0 0
0.4885 0.0078 0.0378 30 0 0 0
0.5115 0.0075 0.0370 30 0 0 0
0.4918 0.0074 0.0365 30 0 0 0
0.4918 0.0074 0.0365 30 0 0 0
0.5016 0.0073 0.0346 30 0 0 0
0.5082 0.0068 0.0347 30 0 0 0
0.5049 0.0065 0.0339 30 0 0 0
0.4951 0.0066 0.0337 30 0 0 0
0.5213 0.0074 0.0315 30 0 0 0
0.5180 0.0077 0.0313 30 0 0 0
0.5180 0.0077 0.0293 30 0 0 0
0.5377 0.0077 0.0293 30 0 0 0
0.5016 0.0080 0.0290 30 0 0 0
0.5082 0.0086 0.0261 30 0 0 0
0.5148 0.0088 0.0271 30 0 0 0
0.5148 0.0088 0.0271 30 0 0 0
0.5016 0.0084 0.0264 30 0 0 0
0.5213 0.0080 0.0267 30 0 0 0
0.4951 0.0077 0.0233 30 0 0 0
0.5016 0.0079 0.0220 30 0 0 0
0.5049 0.0078 0.0216 30 0 0 0
0.5049 0.0078 0.0216 30 0 0 0
0.5246 0.0077 0.0205 30 0 0 0
0.4984 0.0076 0.0205 30 0 0 0
0.4918 0.0079 0.0199 30 0 0 0
0.4918 0.0079 0.0199 30 0 0 0
0.4984 0.0081 0.0208 30 0 0 0
0.5148 0.0081 0.0203 30 0 0 0
0.5246 0.0086 0.0208 30 0 0 0
0.5246 0.0086 0.0208 30 0 0 0
0.5311 0.0090 0.0241 30 0 0 0
0.5246 0.0094 0.0243 30 0 0 0
0.5148 0.0095 0.0250 30 0 0 0
0.5246 0.0096 0.0252 30 0 0 0
0.5115 0.0096 0.0241 30 0 0 0
0.5279 0.0096 0.0236 30 0 0 0
0.5279 0.0096 0.0236 30 0 0 0
0.5279 0.0092 0.0242 30 0 0 0
0.5115 0.0086 0.0248 30 0 0 0
0.5016 0.0077 0.0253 30 0 0 0
0.5180 0.0074 0.0227 30 0 0 0
0.5180 0.0074 0.0227 30 0 0 0
0.4754 0.0073 0.0230 30 0 0 0
0.4885 0.0078 0.0228 30 0 0 0
0.4754 0.0088 0.0228 30 0 0 0
0.4754 0.0088 0.0228 30 0 0 0
0.5016 0.0096 0.0230 30 0 0 0
0.5016 0.0096 0.0230 30 0 0 0
0.5049 0.0094 0.0233 30 0 0 0
0.5082 0.0094 0.0214 30 0 0 0
0.5082 0.0094 0.0214 30 0 0 0
0.4787 0.0096 0.0210 30 0 0 0
0.5016 0.0101 0.0212 30 0 0 0
0.4787 0.0102 0.0199 30 0 0 0
0.4787 0.0102 0.0199 30 0 0 0
0.5082 0.0101 0.0203 30 0 0 0
0.5246 0.0097 0.0229 30 0 0 0
0.5213 0.0090 0.0238 30 0 0 0
0.5082 0.0083 0.0293 30 0 0 0
0.5082 0.0083 0.0293 30 0 0 0
0.4820 0.0081 0.0295 30 0 0 0
0.4918 0.0078 0.0301 30 0 0 0
0.4852 0.0083 0.0306 30 0 0 0
0.4852 0.0083 0.0306 30 0 0 0
0.4689 0.0090 0.0319 30 0 0 0
0.4492 0.0093 0.0322 30 0 0 0
0.4885 0.0090 0.0334 30 0 0 0
0.4852 0.0090 0.0338 30 0 0 0
0.5213 0.0088 0.0346 30 0 0 0
0.5213 0.0088 0.0346 30 0 0 0
0.4820 0.0090 0.0358 30 0 0 0
0.5115 0.0089 0.0355 30 0 0 0
0.5148 0.0091 0.0348 30 0 0 0
0.5148 0.0091 0.0348 30 0 0 0
0.4984 0.0096 0.0350 30 0 0 0
0.4852 0.0094 0.0352 30 0 0 0
0.4885 0.0092 0.0354 30 0 0 0
0.4852 0.0088 0.0353 30 0 0 0
0.4787 0.0088 0.0352 30 0 0 0
0.4852 0.0084 0.0363 30 0 0 0
0.4918 0.0075 0.0363 30 0 0 0
0.4918 0.0075 0.0363 30 0 0 0
0.4885 0.0068 0.0362 30 0 0 0
0.5082 0.0068 0.0363 30 0 0 0
0.5049 0.0065 0.0370 30 0 0 0
0.5049 0.0065 0.0359 30 0 0 0
0.5279 0.0066 0.0362 30 0 0 0
0.5279 0.0066 0.0362 30 0 0 0
0.5279 0.0069 0.0365 30 0 0 0
0.5180 0.0071 0.0362 30 0 0 0
0.5213 0.0072 0.0355 30 0 0 0
0.5115 0.0073 0.0345 30 0 0 0
0.5115 0.0073 0.0345 30 0 0 0
0.5016 0.0078 0.0333 30 0 0 0
0.4984 0.0080 0.0334 30 0 0 0
0.5115 0.0082 0.0334 30 0 0 0
0.5115 0.0081 0.0335 30 0 0 0
0.4885 0.0079 0.0358 30 0 0 0
0.4885 0.0079 0.0358 30 0 0 0
0.4918 0.0077 0.0357 30 0 0 0
0.4787 0.0074 0.0372 30 0 0 0
0.4689 0.0074 0.0370 30 0 0 0
0.4820 0.0075 0.0387 30 0 0 0
0.4820 0.0075 0.0387 30 0 0 0
0.4721 0.0079 0.0396 30 0 0 0
0.4721 0.0081 0.0406 30 0 0 0
0.4721 0.0081 0.0406 30 0 0 0
0.4689 0.0075 0.0395 30 0 0 0
0.4689 0.0075 0.0395 30 0 0 0
0.4721 0.0074 0.0394 30 0 0 0
0.4393 0.0076 0.0391 30 0 0 0
0.4623 0.0078 0.0384 30 0 0 0
0.4623 0.0078 0.0384 30 0 0 0
0.4525 0.0077 0.0379 30 0 0 0
0.4525 0.0075 0.0377 30 0 0 0
0.4689 0.0076 0.0380 30 0 0 0
0.4852 0.0076 0.0380 30 0 0 0
0.4852 0.0076 0.0380 30 0 0 0
0.4426 0.0074 0.0370 30 0 0 0
0.4721 0.0074 0.0364 30 0 0 0
0.4721 0.0074 0.0364 30 0 0 0
0.5082 0.0074 0.0343 30 0 0 0
0.4623 0.0075 0.0337 30 0 0 0
0.4852 0.0074 0.0322 30 0 0 0
0.4852 0.0074 0.0322 30 0 0 0
0.4820 0.0072 0.0319 30 0 0 0
0.4820 0.0067 0.0341 30 0 0 0
0.5115 0.0058 0.0338 30 0 0 0
0.5016 0.0054 0.0364 30 0 0 0
0.4984 0.0051 0.0361 30 0 0 0
0.5148 0.0050 0.0374 30 0 0 0
0.5148 0.0050 0.0374 30 0 0 0
0.5148 0.0056 0.0378 30 0 0 0
0.4852 0.0056 0.0378 30 0 0 0
0.5049 0.0062 0.0378 30 0 0 0
0.4918 0.0069 0.0380 30 0 0 0
0.4787 0.0072 0.0406 30 0 0 0
0.4787 0.0072 0.0406 30 0 0 0
0.4852 0.0071 0.0408 30 0 0 0
0.4852 0.0069 0.0412 30 0 0 0
0.4918 0.0067 0.0411 30 0 0 0
0.4984 0.0066 0.0408 30 0 0 0
0.4984 0.0066 0.0408 30 0 0 0
0.4885 0.0059 0.0504 30 0 0 0
0.4885 0.0059 0.0504 30 0 0 0
0.4852 0.0059 0.0501 30 0 0 0
0.4852 0.0060 0.0878 30 0 0 0
0.4852 0.0060 0.0878 30 0 0 0
0.4951 0.0064 0.0879 30 0 0 0
0.4754 0.0066 0.0884 30 0 0 0
0.4918 0.0069 0.0882 30 0 0 0
0.4918 0.0069 0.0882 30 0 0 0
0.4557 0.0073 0.1193 30 0 0 0
0.4984 0.0074 0.1196 30 0 0 0
0.4852 0.0079 0.1199 30 0 0 0
0.4787 0.0087 0.1053 30 0 0 0
0.4984 0.0090 0.1062 30 0 0 0
0.4951 0.0091 0.1074 30 0 0 0
0.5016 0.0088 0.1071 30 0 0 0
0.5016 0.0088 0.1071 30 0 0 0
0.4885 0.0079 0.1076 30 0 0 0
0.4918 0.0069 0.1077 30 0 0 0
0.4820 0.0064 0.1064 30 0 0 0
0.4918 0.0060 0.1070 30 0 0 0
0.4951 0.0057 0.1069 30 0 0 0
0.4951 0.0057 0.1069 30 0 0 0
0.4918 0.0060 0.1059 30 30 0 0
0.5148 0.0064 0.0929 30 30 0 0
0.5016 0.0068 0.0927 30 30 0 0
0.5016 0.0068 0.0927 30 30 0 0
0.5082 0.0070 0.0809 0 30 0 0
0.5148 0.0068 0.0806 0 30 0 0
0.4754 0.0063 0.0731 0 30 0 0
0.4754 0.0063 0.0731 0 30 0 0
0.4754 0.0060 0.0731 0 30 0 0
0.5082 0.0069 0.0667 0 30 0 0
0.5082 0.0069 0.0667 0 30 0 0
0.4852 0.0081 0.0632 0 30 0 0
0.4852 0.0090 0.0624 0 30 0 0
0.4885 0.0095 0.0579 0 30 0 0
0.5016 0.0092 0.0579 0 30 0 0
0.5016 0.0092 0.0579 0 30 0 0
0.5049 0.0093 0.0560 0 30 0 0
0.5016 0.0096 0.0544 0 30 0 0
0.4787 0.0102 0.0566 0 30 0 0
0.4885 0.0103 0.0551 0 30 0 0
0.4885 0.0103 0.0551 0 30 0 0
0.4885 0.0102 0.0555 0 30 0 0
0.4918 0.0102 0.0549 0 30 0 0
0.4820 0.0097 0.0575 0 30 0 0
0.4820 0.0097 0.0575 0 30 0 0
0.4885 0.0090 0.0583 0 30 0 0
0.4689 0.0087 0.0588 0 30 0 0
0.4885 0.0084 0.0583 0 30 0 0
0.5016 0.0076 0.0579 0 30 0 0
0.5016 0.0070 0.0584 0 30 0 0
0.5148 0.0066 0.0552 0 30 0 0
0.5049 0.0066 0.0558 0 30 0 0
0.5016 0.0073 0.0550 0 30 0 0
0.4852 0.0078 0.0560 0 30 0 0
0.4852 0.0078 0.0560 0 30 0 0
0.4852 0.0082 0.0562 0 30 0 0
0.4852 0.0081 0.0564 0 30 0 0
0.5115 0.0078 0.0550 0 30 0 0
0.5115 0.0078 0.0550 0 30 0 0
0.4951 0.0077 0.0556 0 30 0 0
0.4820 0.0074 0.0562 0 30 0 0
0.4787 0.0075 0.0553 0 30 0 0
0.4787 0.0075 0.0553 0 30 0 0
0.4787 0.0075 0.0549 0 30 0 0
0.4852 0.0076 0.0519 0 30 0 0
0.4852 0.0072 0.0509 0 30 0 0
0.4590 0.0075 0.0505 0 30 0 0
0.4590 0.0075 0.0505 0 30 0 0
0.4852 0.0079 0.0496 0 30 0 0
0.4721 0.0077 0.0483 0 30 0 0
0.4852 0.0089 0.0459 0 30 0 0
0.5016 0.0089 0.0425 0 30 0 0
0.5016 0.0089 0.0425 0 30 0 0
0.4557 0.0086 0.0411 0 30 0 0
0.4557 0.0085 0.0400 0 30 0 0
0.4623 0.0085 0.0389 0 30 0 0
0.4623 0.0083 0.0374 0 30 0 0
0.4623 0.0083 0.0374 0 30 0 0
0.4754 0.0083 0.0366 0 30 0 0
0.4787 0.0084 0.0367 0 30 0 0
0.4820 0.0085 0.0367 0 30 0 0
0.4918 0.0083 0.0366 0 30 0 0
0.4918 0.0083 0.0366 0 30 0 0
0.4984 0.0079 0.0365 0 30 0 0
0.5016 0.0076 0.0365 0 30 0 0
0.4852 0.0077 0.0363 0 30 0 0
0.4787 0.0079 0.0361 0 30 0 0
0.4820 0.0078 0.0360 0 30 0 0
0.4590 0.0077 0.0359 0 30 0 0
0.4852 0.0074 0.0353 0 30 0 0
0.4852 0.0074 0.0353 0 30 0 0
0.4951 0.0072 0.0353 0 30 0 0
0.4951 0.0074 0.0359 0 30 0 0
0.5082 0.0077 0.0356 0 30 0 0
0.4984 0.0077 0.0349 0 30 0 0
0.4885 0.0075 0.0346 0 30 0 0
0.4820 0.0073 0.0328 0 30 0 0
0.5213 0.0073 0.0325 0 30 0 0
0.5213 0.0069 0.0307 0 30 0 0
0.4721 0.0072 0.0307 0 30 0 0
0.4984 0.0076 0.0312 0 30 0 0
0.5213 0.0076 0.0311 0 30 0 0
0.5213 0.0076 0.0311 0 30 0 0
0.5082 0.0074 0.0308 0 30 0 0
0.4918 0.0073 0.0308 0 30 0 0
0.4754 0.0073 0.0295 0 30 0 0
0.4885 0.0073 0.0299 0 30 0 0
0.4885 0.0073 0.0299 0 30 0 0
0.4951 0.0070 0.0310 0 30 0 0
0.4984 0.0071 0.0306 0 30 0 0
0.4984 0.0071 0.0311 0 30 0 0
0.4984 0.0071 0.0311 0 30 0 0
0.4951 0.0073 0.0309 0 30 0 0
0.5082 0.0074 0.0310 0 30 0 0
0.4787 0.0071 0.0311 0 30 0 0
0.4951 0.0072 0.0321 0 30 0 0
0.4951 0.0072 0.0321 0 30 0 0
0.4885 0.0074 0.0324 0 30 0 0
0.4623 0.0080 0.0320 0 30 0 0
0.4820 0.0084 0.0319 0 30 0 0
0.4820 0.0088 0.0321 0 30 0 0
0.4754 0.0088 0.0321 0 30 0 0
0.4918 0.0090 0.0307 0 30 0 0
0.5115 0.0088 0.0306 0 30 0 0
0.5115 0.0088 0.0306 0 30 0 0
0.5082 0.0086 0.0303 0 30 0 0
0.4984 0.0085 0.0300 0 30 0 0
0.5082 0.0080 0.0299 0 30 0 0
0.5082 0.0080 0.0299 0 30 0 0
0.5082 0.0076 0.0307 0 30 0 0
0.5049 0.0072 0.0302 0 30 0 0
0.4557 0.0075 0.0301 0 30 0 0
0.4885 0.0077 0.0293 0 30 0 0
0.4951 0.0079 0.0298 0 30 0 0
0.4820 0.0077 0.0300 0 30 0 0
0.4852 0.0072 0.0291 0 30 0 0
0.5082 0.0070 0.0289 0 30 0 0
0.5082 0.0070 0.0289 0 30 0 0
0.4787 0.0070 0.0290 0 30 0 0
0.4590 0.0083 0.0286 0 30 0 0
0.4951 0.0085 0.0287 0 30 0 0
0.4951 0.0085 0.0287 0 30 0 0
0.4951 0.0085 0.0290 0 30 0 0
0.4623 0.0085 0.0291 0 30 0 0
0.4885 0.0088 0.0293 0 30 0 0
0.4852 0.0087 0.0294 0 30 0 0
0.5148 0.0089 0.0298 0 30 0 0
0.5115 0.0089 0.0719 0 30 0 0
0.4951 0.0090 0.0723 0 30 0 0
0.4918 0.0086 0.0638 0 30 0 0
0.4918 0.0086 0.0638 0 30 0 0
0.5082 0.0081 0.0637 0 30 0 0
0.5082 0.0081 0.0637 0 30 0 0
0.5180 0.0088 0.0563 0 30 0 0
0.5279 0.0089 0.0506 0 30 0 0
0.5279 0.0089 0.0506 0 30 0 0
0.5443 0.0087 0.0461 0 30 0 0
0.5443 0.0087 0.0461 0 30 0 0
0.5344 0.0083 0.0460 0 30 0 0
0.5377 0.0079 0.0436 0 30 0 0
0.5377 0.0079 0.0436 0 30 0 0
0.5246 0.0083 0.0389 0 30 0 0
0.5246 0.0083 0.0389 0 30 0 0
0.5475 0.0091 0.0358 0 30 0 0
0.5475 0.0091 0.0358 0 30 0 0
0.5279 0.0091 0.0322 0 30 0 0
0.5115 0.0096 0.0325 0 30 0 0
0.5180 0.0099 0.0304 0 30 0 0
0.5180 0.0099 0.0304 0 30 0 0
0.5279 0.0105 0.0313 0 30 0 0
0.5049 0.0107 0.0289 0 30 0 0
0.5377 0.0108 0.0292 0 30 0 0
0.5246 0.0108 0.0257 0 30 0 0
0.5246 0.0104 0.0267 0 30 0 0
0.5377 0.0105 0.0242 0 30 0 0
0.5410 0.0100 0.0250 0 30 0 0
0.5344 0.0101 0.0243 0 30 0 0
0.5410 0.0103 0.0221 0 30 0 0
0.5410 0.0103 0.0221 0 30 0 0
0.5148 0.0103 0.0228 0 30 0 0
0.5410 0.0104 0.0219 0 30 0 0
0.5246 0.0107 0.0216 0 30 0 0
0.5377 0.0105 0.0194 0 30 0 0
0.5377 0.0105 0.0194 0 30 0 0
0.5246 0.0095 0.0198 0 30 0 0
0.5246 0.0095 0.0198 0 30 0 0
0.5180 0.0091 0.0200 0 30 0 0
0.4951 0.0088 0.0207 0 30 0 0
0.5115 0.0087 0.0215 0 30 0 0
0.5180 0.0088 0.0238 0 30 0 0
0.5082 0.0090 0.0243 0 30 0 0
0.5016 0.0091 0.0253 0 30 0 0
0.5016 0.0091 0.0253 0 30 0 0
0.5016 0.0095 0.0253 0 30 0 0
0.5311 0.0094 0.0257 0 30 0 0
0.5115 0.0093 0.0249 0 30 0 0
0.5115 0.0093 0.0249 0 30 0 0
0.5246 0.0094 0.0261 0 30 0 0
0.5279 0.0098 0.0282 0 30 0 0
0.5246 0.0099 0.0289 0 30 0 0
0.5279 0.0099 0.0277 0 30 0 0
0.5148 0.0093 0.0274 0 30 0 0
0.5115 0.0088 0.0273 0 30 0 0
0.5115 0.0088 0.0273 0 30 0 0
0.5082 0.0083 0.0277 0 30 0 0
0.5082 0.0083 0.0277 0 30 0 0
0.5410 0.0080 0.0273 0 30 0 0
0.5279 0.0090 0.0273 0 30 0 0
0.5082 0.0087 0.0276 0 30 0 0
0.5148 0.0085 0.0268 0 30 0 0
0.5148 0.0085 0.0268 0 30 0 0
0.4984 0.0083 0.0269 0 30 0 0
0.5180 0.0081 0.0272 0 30 0 0
0.5246 0.0082 0.0271 0 30 0 0
0.5311 0.0091 0.0261 0 30 0 0
0.5082 0.0096 0.0270 0 30 0 0
0.5410 0.0099 0.0273 0 30 0 0
0.5311 0.0104 0.0282 0 30 0 0
0.5180 0.0103 0.0284 0 30 0 0
0.5180 0.0103 0.0284 0 30 0 0
0.4951 0.0102 0.0314 0 30 0 0
0.5115 0.0100 0.0317 0 30 0 0
0.4885 0.0099 0.0308 0 30 0 0
0.4918 0.0094 0.0310 0 30 0 0
0.4918 0.0094 0.0310 0 30 0 0
0.5016 0.0091 0.0317 0 30 0 0
0.5016 0.0087 0.0326 0 30 0 0
0.5016 0.0085 0.0328 0 30 0 0
0.5246 0.0084 0.0336 0 30 0 0
0.4984 0.0085 0.0337 0 30 0 0
0.4984 0.0087 0.0342 0 30 0 0
0.4820 0.0087 0.0338 0 30 0 0
0.4951 0.0087 0.0337 0 30 0 0
0.4951 0.0087 0.0337 0 30 0 0
0.4951 0.0087 0.0332 0 30 0 0
0.4984 0.0085 0.0319 0 30 0 0
0.4918 0.0079 0.0317 0 30 0 0
0.4984 0.0072 0.0320 0 30 0 0
0.4984 0.0071 0.0320 0 30 0 0
0.4787 0.0071 0.0320 0 30 0 0
0.5082 0.0071 0.0309 0 30 0 0
0.4754 0.0077 0.0305 0 30 0 0
0.4852 0.0079 0.0304 0 30 0 0
0.4951 0.0085 0.0302 0 30 0 0
0.4885 0.0085 0.0295 0 30 0 0
0.4656 0.0083 0.0299 0 30 0 0
0.4918 0.0082 0.0298 0 30 0 0
0.4852 0.0078 0.0280 0 30 0 0
0.4852 0.0078 0.0280 0 30 0 0
0.4951 0.0082 0.0276 0 30 0 0
0.4918 0.0085 0.0276 0 30 0 0
0.5213 0.0085 0.0281 0 30 0 0
0.5115 0.0085 0.0287 0 30 0 0
0.5016 0.0082 0.0285 0 30 0 0
0.5016 0.0082 0.0285 0 30 0 0
0.4951 0.0083 0.0286 0 30 0 0
0.5148 0.0078 0.0295 0 30 0 0
0.5148 0.0078 0.0295 0 30 0 0
0.5148 0.0072 0.0295 0 30 0 0
0.4918 0.0071 0.0298 0 30 0 0
0.4951 0.0070 0.0294 0 30 0 0
0.5016 0.0071 0.0304 0 30 0 0
0.4951 0.0075 0.0304 0 30 0 0
0.4984 0.0078 0.0291 0 30 0 0
0.4984 0.0083 0.0284 0 30 0 0
0.5049 0.0076 0.0292 0 30 0 0
0.5049 0.0072 0.0295 0 30 0 0
0.5049 0.0072 0.0295 0 30 0 0
0.5016 0.0072 0.0316 0 30 0 0
0.5180 0.0072 0.0311 0 30 0 0
0.4820 0.0078 0.0321 0 30 0 0
0.4820 0.0078 0.0321 0 30 0 0
0.4951 0.0088 0.0345 0 30 0 0
0.5115 0.0088 0.0342 0 30 0 0
0.5115 0.0088 0.0342 0 30 0 0
0.4918 0.0090 0.0346 0 30 0 0
0.5082 0.0088 0.0366 0 30 0 0
0.5049 0.0082 0.0364 0 30 0 0
0.5049 0.0082 0.0364 0 30 0 0
0.5082 0.0078 0.0383 0 30 0 0
0.5082 0.0078 0.0383 0 30 0 0
0.4885 0.0075 0.0398 0 30 0 0
0.4885 0.0077 0.0387 0 30 0 0
0.4852 0.0078 0.0379 0 30 0 0
0.4721 0.0077 0.0377 0 30 0 0
0.4721 0.0077 0.0377 0 30 0 0
0.4918 0.0078 0.0393 0 30 0 0
0.4951 0.0083 0.0389 0 30 0 0
0.4852 0.0088 0.0383 0 30 0 0
0.4852 0.0088 0.0383 0 30 0 0
0.4721 0.0098 0.0395 0 30 0 0
0.5311 0.0099 0.0395 0 30 0 0
0.5311 0.0099 0.0395 0 30 0 0
0.5049 0.0094 0.0387 0 30 0 0
0.5082 0.0090 0.0383 0 30 0 0
0.4885 0.0091 0.0392 0 30 0 0
0.5049 0.0091 0.0383 0 30 0 0
0.5377 0.0090 0.0373 0 30 0 0
0.5115 0.0092 0.0367 0 30 0 0
0.5115 0.0092 0.0367 0 30 0 0
0.4918 0.0099 0.0347 0 30 0 0
0.4918 0.0099 0.0347 0 30 0 0
0.4820 0.0097 0.0348 0 30 0 0
0.4820 0.0097 0.0348 0 30 0 0
0.4918 0.0084 0.0354 0 30 0 0
0.4852 0.0082 0.0348 0 30 0 0
0.4852 0.0082 0.0348 0 30 0 0
0.4984 0.0086 0.0353 0 30 0 0
0.4918 0.0088 0.0354 0 30 0 0
0.4951 0.0087 0.0354 0 30 0 0
0.4951 0.0087 0.0354 0 30 0 0
0.4918 0.0085 0.0337 0 30 0 0
0.4918 0.0085 0.0318 0 30 0 0
0.5279 0.0083 0.0316 0 30 0 0
0.4984 0.0082 0.0281 0 30 0 0
0.5049 0.0080 0.0276 0 30 0 0
0.5049 0.0080 0.0276 0 30 0 0
0.4852 0.0082 0.0268 0 30 0 0
0.4721 0.0085 0.0271 0 30 0 0
0.5246 0.0085 0.0272 0 30 0 0
0.5082 0.0083 0.0275 0 30 0 0
0.5148 0.0074 0.0286 0 30 0 0
0.4951 0.0070 0.0286 0 30 0 0
0.5180 0.0070 0.0259 0 30 0 0
0.5016 0.0085 0.0264 0 30 0 0
0.5246 0.0085 0.0264 0 30 0 0
0.5115 0.0093 0.0270 0 30 0 0
0.5115 0.0093 0.0270 0 30 0 0
0.5443 0.0092 0.0258 0 30 0 0
0.5443 0.0092 0.0258 0 30 0 0
0.5213 0.0094 0.0265 0 30 0 0
0.5213 0.0095 0.0262 0 30 0 0
0.5115 0.0097 0.0268 0 30 0 0
0.5049 0.0100 0.0273 0 30 0 0
0.5049 0.0100 0.0273 0 30 0 0
0.5213 0.0099 0.0270 0 30 0 0
0.5016 0.0102 0.0272 0 30 0 0
0.5016 0.0102 0.0272 0 30 0 0
0.4918 0.0106 0.0254 0 30 0 0
0.5246 0.0104 0.0258 0 30 0 0
0.5148 0.0103 0.0228 0 30 0 0
0.5148 0.0103 0.0228 0 30 0 0
0.4984 0.0100 0.0239 0 30 0 0
0.4984 0.0100 0.0239 0 30 0 0
0.4951 0.0093 0.0234 0 30 0 0
0.4820 0.0090 0.0260 0 30 0 0
0.4820 0.0090 0.0260 0 30 0 0
0.4820 0.0091 0.0271 0 30 0 0
0.4820 0.0091 0.0271 0 30 0 0
0.5377 0.0088 0.0267 0 30 0 0
0.5213 0.0083 0.0264 0 30 0 0
0.5279 0.0080 0.0262 0 30 0 0
0.5082 0.0077 0.0254 0 30 0 0
0.5049 0.0086 0.0251 0 30 0 0
0.5148 0.0095 0.0269 0 30 0 0
0.5115 0.0100 0.0272 0 30 0 0
0.5115 0.0100 0.0272 0 30 0 0
0.5508 0.0105 0.0299 0 30 0 0
0.5246 0.0100 0.0343 0 30 0 0
0.5213 0.0095 0.0335 0 30 0 0
0.5213 0.0095 0.0335 0 30 0 0
0.5311 0.0091 0.0332 0 30 0 0
0.5213 0.0087 0.0331 0 30 0 0
0.4951 0.0086 0.0326 0 30 0 0
0.4951 0.0086 0.0326 0 30 0 0
0.5016 0.0090 0.0324 0 30 0 0
0.4820 0.0091 0.0324 0 30 0 0
0.4951 0.0093 0.0324 0 30 0 0
0.4951 0.0093 0.0324 0 30 0 0
0.4721 0.0089 0.0331 0 30 0 0
0.5115 0.0089 0.0338 0 30 0 0
0.5115 0.0089 0.0338 0 30 0 0
0.5115 0.0089 0.0344 0 30 0 0
0.5115 0.0089 0.0344 0 30 0 0
0.5115 0.0091 0.0329 0 30 0 0
0.5148 0.0096 0.0326 0 0 0 0
0.5180 0.0089 0.0322 30 0 0 0
0.4984 0.0097 0.0319 30 0 0 0
0.4984 0.0097 0.0319 30 0 0 0
0.5180 0.0100 0.0307 30 0 0 0
0.5016 0.0101 0.0304 30 0 0 0
0.5180 0.0100 0.0309 30 0 0 0
0.5115 0.0097 0.0308 30 0 0 0
0.5115 0.0097 0.0308 30 0 0 0
0.5049 0.0088 0.0314 30 0 0 0
0.5082 0.0085 0.0317 30 0 0 0
0.5180 0.0084 0.0316 30 0 0 0
0.4885 0.0085 0.0282 30 0 0 0
0.4852 0.0086 0.0279 30 0 0 0
0.4852 0.0086 0.0279 30 0 0 0
0.4918 0.0087 0.0275 30 0 0 0
0.4918 0.0089 0.0259 30 0 0 0
0.5311 0.0093 0.0230 30 0 0 0
0.5311 0.0093 0.0230 30 0 0 0
0.4984 0.0096 0.0226 30 0 0 0
0.5311 0.0097 0.0211 30 0 0 0
0.5115 0.0094 0.0204 30 0 0 0
0.5115 0.0096 0.0192 30 0 0 0
0.5016 0.0096 0.0176 30 0 0 0
0.5016 0.0096 0.0176 30 0 0 0
0.5148 0.0095 0.0168 30 0 0 0
0.5279 0.0096 0.0174 30 0 0 0
0.4951 0.0094 0.0181 30 0 0 0
0.4951 0.0094 0.0181 30 0 0 0
0.5016 0.0089 0.0187 30 0 0 0
0.5246 0.0086 0.0219 30 0 0 0
0.5377 0.0081 0.0208 30 0 0 0
0.5377 0.0082 0.0200 30 0 0 0
0.5377 0.0082 0.0200 30 0 0 0
0.5279 0.0079 0.0204 30 0 0 0
0.5115 0.0082 0.0196 30 0 0 0
0.5213 0.0078 0.0174 30 0 0 0
0.5213 0.0078 0.0174 30 0 0 0
0.5213 0.0077 0.0178 30 0 0 0
0.5246 0.0079 0.0181 30 0 0 0
0.5246 0.0078 0.0167 30 0 0 0
0.5410 0.0075 0.0180 30 0 0 0
0.5180 0.0075 0.0197 30 0 0 0
0.5180 0.0077 0.0208 30 0 0 0
0.5377 0.0078 0.0196 30 0 0 0
0.5279 0.0078 0.0187 30 0 0 0
0.5279 0.0078 0.0187 30 0 0 0
0.5148 0.0080 0.0183 30 0 0 0
0.5410 0.0084 0.0195 30 0 0 0
0.5180 0.0088 0.0174 30 0 0 0
0.5180 0.0087 0.0176 30 0 0 0
0.5082 0.0087 0.0176 30 0 0 0
0.5049 0.0086 0.0165 30 0 0 0
0.5410 0.0082 0.0178 30 0 0 0
0.5279 0.0084 0.0211 30 0 0 0
0.5508 0.0086 0.0232 30 0 0 0
0.5410 0.0086 0.0269 30 0 0 0
0.5180 0.0086 0.0291 30 0 0 0
0.5213 0.0084 0.0334 30 0 0 0
0.5246 0.0086 0.0360 30 0 0 0
0.5410 0.0082 0.0358 30 0 0 0
0.5410 0.0082 0.0358 30 0 0 0
0.5279 0.0078 0.0380 30 0 0 0
0.5115 0.0078 0.0380 30 0 0 0
0.5344 0.0073 0.0415 30 0 0 0
0.5344 0.0073 0.0415 30 0 0 0
0.4951 0.0070 0.0434 30 0 0 0
0.5246 0.0081 0.0427 30 0 0 0
0.5541 0.0084 0.0445 30 0 0 0
0.5344 0.0084 0.0423 30 0 0 0
0.5672 0.0079 0.0431 30 0 0 0
0.5672 0.0079 0.0431 30 0 0 0
0.5705 0.0075 0.0420 30 0 0 0
0.5607 0.0075 0.0414 30 0 0 0
0.5672 0.0075 0.0399 30 0 0 0
0.5672 0.0075 0.0399 30 0 0 0
0.5508 0.0080 0.0387 30 0 0 0
0.5770 0.0077 0.0396 30 0 0 0
0.5738 0.0077 0.0392 30 0 0 0
0.5738 0.0077 0.0392 30 0 0 0
0.5475 0.0069 0.0398 30 0 0 0
0.5475 0.0069 0.0398 30 0 0 0
0.5672 0.0071 0.0372 30 0 0 0
0.5574 0.0074 0.0365 30 0 0 0
0.5836 0.0076 0.0348 30 0 0 0
0.5836 0.0076 0.0348 30 0 0 0
0.5738 0.0077 0.0349 30 0 0 0
0.5574 0.0076 0.0325 30 0 0 0
0.5607 0.0078 0.0332 30 0 0 0
0.5541 0.0078 0.0340 30 0 0 0
0.5541 0.0078 0.0340 30 0 0 0
0.5508 0.0081 0.0339 30 0 0 0
0.5410 0.0077 0.0329 30 0 0 0
0.5410 0.0079 0.0319 30 0 0 0
0.5410 0.0079 0.0319 30 0 0 0
0.5738 0.0078 0.0321 30 0 0 0
0.5738 0.0073 0.0317 30 0 0 0
0.5738 0.0073 0.0317 30 0 0 0
0.5869 0.0075 0.0299 30 0 0 0
0.5574 0.0079 0.0296 30 0 0 0
0.5475 0.0078 0.0255 30 0 0 0
0.5607 0.0078 0.0252 30 0 0 0
0.5770 0.0079 0.0203 30 0 0 0
0.5770 0.0079 0.0203 30 0 0 0
0.5180 0.0080 0.0200 30 0 0 0
0.5672 0.0083 0.0191 30 0 0 0
0.5607 0.0085 0.0190 30 0 0 0
0.5803 0.0086 0.0202 30 0 0 0
0.5803 0.0086 0.0202 30 0 0 0
0.5311 0.0085 0.0283 30 0 0 0
0.5443 0.0084 0.0286 30 0 0 0
0.5705 0.0083 0.0289 30 0 0 0
0.5705 0.0083 0.0289 30 0 0 0
0.5574 0.0082 0.0292 30 0 0 0
0.5934 0.0084 0.0289 30 0 0 0
0.5836 0.0081 0.0299 30 0 0 0
0.5475 0.0080 0.0293 30 0 0 0
0.5475 0.0080 0.0293 30 0 0 0
0.5607 0.0074 0.0300 30 0 0 0
0.5574 0.0074 0.0320 30 0 0 0
0.5902 0.0076 0.0324 30 0 0 0
0.5902 0.0076 0.0324 30 0 0 0
0.5869 0.0079 0.0319 30 0 0 0
0.5967 0.0084 0.0320 30 0 0 0
0.5639 0.0088 0.0331 30 0 0 0
0.5639 0.0088 0.0331 30 0 0 0
0.5574 0.0090 0.0313 30 0 0 0
0.5377 0.0087 0.0296 30 0 0 0
0.5574 0.0080 0.0291 30 0 0 0
0.5574 0.0080 0.0291 30 0 0 0
0.5574 0.0078 0.0252 30 0 0 0
0.5770 0.0080 0.0246 30 0 0 0
0.5770 0.0083 0.0241 30 0 0 0
0.5541 0.0090 0.0234 30 0 0 0
0.5541 0.0090 0.0234 30 0 0 0
0.5574 0.0091 0.0205 30 0 0 0
0.5574 0.0091 0.0205 30 0 0 0
0.5672 0.0090 0.0213 30 0 0 0
0.5344 0.0086 0.0219 30 0 0 0
0.5508 0.0085 0.0222 30 0 0 0
0.5508 0.0085 0.0222 30 0 0 0
0.5475 0.0081 0.0217 30 0 0 0
0.5672 0.0083 0.0230 30 0 0 0
0.5705 0.0083 0.0237 30 0 0 0
0.6066 0.0083 0.0223 30 0 0 0
0.5803 0.0081 0.0220 30 0 0 0
0.5705 0.0083 0.0234 30 0 0 0
0.6000 0.0076 0.0233 30 0 0 0
0.6000 0.0076 0.0233 30 0 0 0
0.5836 0.0074 0.0226 30 0 0 0
0.6033 0.0074 0.0226 0 30 0 0
0.5902 0.0073 0.0222 0 30 0 0
0.5902 0.0070 0.0211 0 30 0 0
0.5803 0.0064 0.0208 0 30 0 0
0.5803 0.0064 0.0208 0 30 0 0
0.5869 0.0064 0.0197 0 30 0 0
0.5639 0.0067 0.0203 0 30 0 0
0.5803 0.0074 0.0180 0 30 0 0
0.5803 0.0074 0.0180 0 30 0 0
0.5508 0.0082 0.0177 0 30 0 0
0.5869 0.0081 0.0189 0 30 0 0
0.6000 0.0076 0.0176 0 30 0 0
0.6066 0.0072 0.0181 0 30 0 0
0.6066 0.0072 0.0181 0 30 0 0
0.6000 0.0072 0.0196 0 30 0 0
0.6230 0.0074 0.0194 0 30 0 0
0.6066 0.0074 0.0186 0 30 0 0
0.6066 0.0070 0.0187 0 30 0 0
0.6230 0.0064 0.0183 0 30 0 0
0.6230 0.0064 0.0183 0 30 0 0
0.6230 0.0054 0.0185 0 30 0 0
0.6230 0.0048 0.0196 0 30 0 0
0.6164 0.0045 0.0201 0 30 0 0
0.6164 0.0045 0.0201 0 30 0 0
0.6033 0.0046 0.0215 0 30 0 0
0.6492 0.0058 0.0223 0 30 0 0
0.6295 0.0065 0.0223 0 30 0 0
0.6295 0.0065 0.0223 0 30 0 0
0.6197 0.0070 0.0226 0 30 0 0
0.6164 0.0067 0.0212 0 30 0 0
0.5902 0.0067 0.0216 0 0 0 0
0.6131 0.0075 0.0239 0 30 0 0
0.6361 0.0081 0.0284 0 30 0 0
0.6557 0.0079 0.0269 0 30 0 0
0.6557 0.0079 0.0269 0 30 0 0
0.6197 0.0075 0.0313 0 0 0 0
0.6098 0.0071 0.0331 0 30 0 0
0.6164 0.0077 0.0339 0 30 0 0
0.6197 0.0078 0.0337 0 30 0 0
0.5869 0.0074 0.0331 0 30 0 0
0.5967 0.0070 0.0333 0 0 0 0
0.6230 0.0057 0.0335 0 30 0 0
0.6164 0.0060 0.0324 0 30 0 0
0.6098 0.0070 0.0328 0 0 0 0
0.6295 0.0066 0.0264 30 0 0 0
0.6098 0.0072 0.0295 30 0 0 0
0.6230 0.0073 0.0301 30 0 0 0
0.6230 0.0073 0.0301 30 0 0 0
0.6066 0.0072 0.0287 30 0 0 0
0.6131 0.0075 0.0286 30 0 0 0
0.6033 0.0083 0.0288 0 0 0 0
0.6197 0.0088 0.0285 30 0 0 0
0.5934 0.0094 0.0278 30 0 0 0
0.6197 0.0092 0.0255 30 0 0 0
0.6197 0.0092 0.0255 30 0 0 0
0.6262 0.0091 0.0254 30 0 0 0
0.6164 0.0091 0.0258 0 0 0 0
0.6066 0.0110 0.0284 30 0 0 0
0.6131 0.0108 0.0285 30 0 0 0
0.5967 0.0075 0.0260 30 0 0 0
0.5836 0.0077 0.0281 30 0 0 0
0.5836 0.0077 0.0281 30 0 0 0
0.5934 0.0075 0.0262 30 0 0 0
0.6426 0.0068 0.0264 30 0 0 0
0.6197 0.0070 0.0244 30 0 0 0
0.6197 0.0073 0.0242 0 0 0 0
0.6197 0.0070 0.0261 0 30 0 0
0.6164 0.0062 0.0275 0 30 0 0
0.6262 0.0067 0.0266 0 30 0 0
0.6262 0.0067 0.0266 0 30 0 0
0.6262 0.0080 0.0268 0 30 0 0
0.5902 0.0084 0.0265 0 30 0 0
0.6393 0.0082 0.0269 0 30 0 0
0.6393 0.0082 0.0269 0 30 0 0
0.6197 0.0079 0.0241 0 30 0 0
0.6295 0.0075 0.0247 0 30 0 0
0.6295 0.0075 0.0247 0 30 0 0
0.5967 0.0075 0.0252 0 30 0 0
0.6295 0.0080 0.0264 0 30 0 0
0.6361 0.0080 0.0265 0 30 0 0
0.6361 0.0080 0.0265 0 30 0 0
0.6164 0.0081 0.0281 0 30 0 0
0.6098 0.0083 0.0279 0 30 0 0
0.6361 0.0081 0.0259 0 0 0 0
0.6361 0.0072 0.0266 0 30 0 0
0.6492 0.0074 0.0284 0 30 0 0
0.6328 0.0090 0.0308 0 30 0 0
0.6328 0.0090 0.0308 0 30 0 0
0.6525 0.0099 0.0306 0 30 0 0
0.6328 0.0095 0.0313 0 30 0 0
0.6557 0.0088 0.0310 0 30 0 0
0.6590 0.0078 0.0316 0 30 0 0
0.6459 0.0070 0.0307 0 30 0 0
0.6590 0.0070 0.0305 0 30 0 0
0.6820 0.0071 0.0300 0 30 0 0
0.6525 0.0065 0.0295 0 0 0 0
0.6754 0.0059 0.0300 -30 0 0 0
0.7082 0.0075 0.0309 -30 0 0 0
0.6656 0.0067 0.0316 -30 0 0 0
0.6426 0.0062 0.0320 -30 0 0 0
0.6590 0.0052 0.0314 -30 0 0 0
0.6590 0.0052 0.0314 -30 0 0 0
0.6459 0.0050 0.0321 -30 0 0 0
0.6721 0.0052 0.0319 -30 0 0 0
0.6852 0.0053 0.0314 -30 0 0 0
0.6852 0.0053 0.0314 -30 0 0 0
0.6787 0.0049 0.0304 -30 0 0 0
0.6951 0.0048 0.0311 -30 0 0 0
0.6984 0.0046 0.0318 -30 0 0 0
0.6984 0.0046 0.0318 -30 0 0 0
0.6885 0.0045 0.0319 -30 0 0 0
0.6525 0.0044 0.0313 -30 0 0 0
0.6590 0.0045 0.0311 -30 0 0 0
0.6295 0.0052 0.0309 -30 0 0 0
0.6393 0.0055 0.0310 -30 0 0 0
0.6230 0.0059 0.0337 -30 0 0 0
0.6230 0.0059 0.0337 -30 0 0 0
0.6525 0.0058 0.0331 -30 0 0 0
0.6295 0.0059 0.0313 -30 0 0 0
0.6197 0.0056 0.0325 -30 0 0 0
0.6197 0.0060 0.0305 -30 0 0 0
0.6197 0.0060 0.0305 -30 0 0 0
0.6557 0.0064 0.0323 -30 0 0 0
0.6164 0.0067 0.0314 -30 0 0 0
0.6393 0.0067 0.0308 -30 0 0 0
0.6393 0.0071 0.0318 -30 0 0 0
0.6623 0.0071 0.0318 -30 0 0 0
0.6492 0.0076 0.0337 -30 0 0 0
0.6525 0.0073 0.0333 0 0 0 0
0.6557 0.0093 0.0279 0 0 -30 0
0.6230 0.0107 0.0219 0 0 -30 0
0.6885 0.0113 0.0217 0 0 -30 0
0.6820 0.0113 0.0244 0 0 -30 0
0.6525 0.0114 0.0241 0 0 0 0
0.6328 0.0117 0.0262 0 0 -30 0
0.6492 0.0109 0.0245 0 0 -30 0
0.6230 0.0109 0.0241 0 0 -30 0
0.6230 0.0109 0.0241 0 0 -30 0
0.6426 0.0108 0.0237 0 0 0 0
0.6328 0.0062 0.0243 0 0 -30 0
0.6098 0.0028 0.0257 0 0 -30 0
0.6426 -0.0000 0.0236 0 0 -30 0
0.6426 -0.0000 0.0236 0 0 0 0
0.6492 0.0001 0.0216 0 0 -30 0
0.6557 0.0006 0.0214 0 0 -30 0
0.6623 0.0005 0.0186 0 0 0 0
0.6492 -0.0034 0.0170 0 0 30 0
0.6623 -0.0054 0.0232 0 0 30 0
0.6623 -0.0068 0.0234 0 0 0 0
0.6557 -0.0074 0.0219 0 0 30 0
0.6656 -0.0043 0.0166 0 0 0 0
0.6820 -0.0038 0.0096 0 0 30 0
0.6918 -0.0024 0.0090 0 0 30 0
0.7016 -0.0020 0.0062 0 0 0 0
