0.6425 0.0040 -0.0131 0 30 0 0
0.6145 0.0043 -0.0158 0 30 0 0
0.6536 0.0043 -0.0165 0 30 0 0
0.6369 0.0039 -0.0142 0 30 0 0
0.6425 0.0039 -0.0138 0 30 0 0
0.6425 0.0039 -0.0138 0 0 0 0
0.6425 0.0033 -0.0150 0 30 0 0
0.6089 0.0032 -0.0132 0 30 0 0
0.6145 0.0031 -0.0132 0 30 0 0
0.6369 0.0032 -0.0134 0 30 0 0
0.6592 0.0032 -0.0139 0 30 0 0
0.6145 0.0031 -0.0138 0 30 0 0
0.6034 0.0035 -0.0133 0 30 0 0
0.6425 0.0033 -0.0128 0 30 0 0
0.6648 0.0036 -0.0128 0 30 0 0
0.6648 0.0036 -0.0128 0 30 0 0
0.6145 0.0037 -0.0127 0 30 0 0
0.6145 0.0035 -0.0142 0 30 0 0
0.6480 0.0036 -0.0142 0 30 0 0
0.6089 0.0040 -0.0173 0 30 0 0
0.6816 0.0046 -0.0175 0 30 0 0
0.6816 0.0046 -0.0175 0 30 0 0
0.6927 0.0050 -0.0163 0 30 0 0
0.6592 0.0048 -0.0141 0 30 0 0
0.6592 0.0048 -0.0141 0 30 0 0
0.6201 0.0040 -0.0138 0 30 0 0
0.6145 0.0032 -0.0141 0 30 0 0
0.6369 0.0029 -0.0137 0 30 0 0
0.6480 0.0029 -0.0142 0 30 0 0
0.5978 0.0029 -0.0141 0 30 0 0
0.6257 0.0032 -0.0155 0 30 0 0
0.6257 0.0032 -0.0155 0 30 0 0
0.6089 0.0038 -0.0150 0 30 0 0
0.5866 0.0036 -0.0147 0 0 0 0
0.6369 0.0037 -0.0147 0 30 0 0
0.6592 0.0034 -0.0113 0 30 0 0
0.6145 0.0033 -0.0102 0 30 0 0
0.6369 0.0033 -0.0115 0 30 0 0
0.6257 0.0033 -0.0112 0 30 0 0
0.6257 0.0033 -0.0112 0 0 0 0
0.6425 0.0035 -0.0118 0 30 0 0
0.6648 0.0039 -0.0133 0 30 0 0
0.6648 0.0038 -0.0134 0 30 0 0
0.6648 0.0038 -0.0134 0 30 0 0
0.6201 0.0037 -0.0132 0 30 0 0
0.6592 0.0039 -0.0125 0 30 0 0
0.6592 0.0039 -0.0125 0 0 0 0
0.6034 0.0041 -0.0111 0 30 0 0
0.6201 0.0042 -0.0069 0 30 0 0
0.6257 0.0041 -0.0067 0 30 0 0
0.6257 0.0041 -0.0067 0 0 0 0
0.6480 0.0038 -0.0059 0 30 0 0
0.6425 0.0039 -0.0039 0 30 0 0
0.6425 0.0039 -0.0039 0 30 0 0
0.6480 0.0034 -0.0036 0 30 0 0
0.6425 0.0035 -0.0019 0 30 0 0
0.6369 0.0037 -0.0022 0 30 0 0
0.6369 0.0037 -0.0022 0 30 0 0
0.6425 0.0037 -0.0010 0 30 0 0
0.6201 0.0039 -0.0010 0 30 0 0
0.6425 0.0041 -0.0007 0 0 0 0
0.6592 0.0052 0.0014 0 30 0 0
0.5922 0.0043 0.0006 0 30 0 0
0.6704 0.0037 0.0002 0 30 0 0
0.6648 0.0035 -0.0003 0 0 0 0
0.6369 0.0042 0.0031 0 30 0 0
0.6313 0.0045 0.0054 0 30 0 0
0.6704 0.0048 0.0089 0 30 0 0
0.6704 0.0048 0.0089 0 0 0 0
0.6592 0.0042 0.0130 0 30 0 0
0.7039 0.0048 0.0171 0 30 0 0
0.6648 0.0050 0.0176 0 0 0 0
0.6369 0.0044 0.0113 0 0 0 -30
0.6313 0.0040 0.0123 0 0 0 -30
0.6704 0.0039 0.0129 0 0 0 0
0.6872 0.0045 0.0079 0 0 0 -30
0.6704 0.0045 0.0086 0 0 0 0
0.6760 0.0045 0.0108 0 0 0 -30
0.6313 0.0034 0.0053 0 0 0 0
0.6257 0.0047 -0.0085 0 0 0 0
0.6257 0.0047 -0.0192 0 0 0 30
0.6592 0.0043 -0.0180 0 0 0 30
0.6816 0.0044 -0.0184 0 0 0 0
0.6480 0.0041 -0.0148 0 0 0 30
0.6257 0.0031 -0.0157 0 0 0 0
0.6536 0.0038 -0.0092 0 0 0 30
0.6536 0.0044 -0.0094 0 0 0 0
0.6592 0.0031 -0.0096 0 0 0 30
0.6760 0.0040 -0.0071 0 0 0 0
0.6592 0.0045 -0.0046 0 0 0 30
0.6369 0.0044 -0.0015 0 0 0 30
0.6536 0.0048 -0.0005 0 0 0 0
0.6648 0.0059 0.0031 0 0 0 30
0.6536 0.0055 0.0044 0 0 0 30
0.6872 0.0049 0.0028 0 0 0 0
0.6425 0.0048 0.0100 30 0 0 0
0.7207 0.0058 0.0136 30 0 0 0
0.6816 0.0047 0.0162 30 0 0 0
0.6257 0.0046 0.0159 0 0 0 0
0.6480 0.0050 0.0174 0 0 0 -30
0.6201 0.0042 0.0225 0 0 0 -30
0.6369 0.0057 0.0306 0 0 0 0
0.6592 0.0055 0.0287 0 0 0 -30
0.6425 0.0056 0.0249 0 0 0 0
0.6313 0.0043 0.0258 0 0 0 -30
0.6760 0.0048 0.0244 0 0 0 0
0.6704 0.0028 0.0250 0 0 0 -30
0.6480 0.0031 0.0230 0 0 0 0
0.6313 0.0035 0.0187 0 0 0 -30
0.6592 0.0040 0.0139 0 0 0 0
0.6704 0.0037 0.0123 0 0 0 -30
0.6760 0.0039 0.0087 0 0 0 -30
0.6257 0.0046 0.0083 0 0 0 0
0.6201 0.0041 0.0096 0 0 0 -30
0.6536 0.0044 0.0095 0 0 0 0
0.6313 0.0038 0.0032 0 0 0 0
0.6089 0.0029 -0.0043 -30 0 0 0
0.6034 0.0015 -0.0057 -30 0 0 0
0.6536 0.0026 -0.0060 -30 0 0 0
0.6592 0.0031 -0.0056 -30 0 0 0
0.6592 0.0031 -0.0056 0 0 0 0
0.6034 0.0034 -0.0037 -30 0 0 0
0.6425 0.0045 -0.0012 -30 0 0 0
0.6201 0.0044 -0.0012 -30 0 0 0
0.6089 0.0048 -0.0007 0 0 0 0
0.6145 0.0035 0.0017 -30 0 0 0
0.6480 0.0035 -0.0016 -30 0 0 0
0.6536 0.0040 -0.0035 -30 0 0 0
0.6089 0.0033 -0.0053 0 0 0 0
0.6369 0.0052 -0.0027 30 0 0 0
0.6480 0.0050 -0.0036 30 0 0 0
0.6257 0.0052 -0.0057 30 0 0 0
0.5978 0.0050 -0.0065 30 0 0 0
0.6313 0.0046 -0.0052 0 0 0 0
0.6145 0.0039 -0.0087 30 0 0 0
0.6313 0.0048 -0.0109 30 0 0 0
0.6648 0.0048 -0.0118 30 0 0 0
0.6257 0.0042 -0.0123 30 0 0 0
0.6536 0.0040 -0.0124 0 0 0 0
0.6089 0.0046 -0.0111 30 0 0 0
0.6145 0.0041 -0.0073 30 0 0 0
0.6257 0.0045 -0.0052 30 0 0 0
0.6257 0.0045 -0.0052 0 0 0 0
0.6313 0.0046 -0.0033 30 0 0 0
0.6089 0.0045 -0.0026 30 0 0 0
0.6201 0.0042 -0.0026 30 0 0 0
0.6369 0.0040 -0.0032 0 0 0 0
0.6201 0.0052 -0.0035 0 30 0 0
0.6648 0.0043 -0.0058 0 30 0 0
0.6592 0.0037 -0.0050 0 30 0 0
0.6480 0.0035 -0.0038 0 0 0 0
0.6760 0.0041 -0.0034 0 30 0 0
0.6480 0.0032 -0.0030 0 30 0 0
0.5754 0.0030 0.0002 0 30 0 0
0.6201 0.0033 0.0004 0 30 0 0
0.6536 0.0043 -0.0007 0 0 0 0
0.6480 0.0039 0.0036 0 30 0 0
0.6760 0.0036 0.0049 0 30 0 0
0.6089 0.0033 0.0092 0 30 0 0
0.6369 0.0037 0.0091 0 30 0 0
0.6369 0.0040 0.0095 0 0 0 0
0.6648 0.0037 0.0147 30 0 0 0
0.6257 0.0041 0.0163 30 0 0 0
0.6648 0.0042 0.0159 30 0 0 0
0.6648 0.0038 0.0167 0 0 0 0
0.6592 0.0046 0.0149 30 0 0 0
0.6369 0.0038 0.0159 30 0 0 0
0.6257 0.0037 0.0178 30 0 0 0
0.6257 0.0037 0.0178 0 0 0 0
0.6257 0.0047 0.0162 30 0 0 0
0.6760 0.0050 0.0168 30 0 0 0
0.6425 0.0045 0.0166 30 0 0 0
0.6425 0.0045 0.0166 30 0 0 0
0.6313 0.0042 0.0181 0 0 0 0
0.6592 0.0040 0.0225 30 0 0 0
0.6257 0.0027 0.0233 30 0 0 0
0.6369 0.0031 0.0228 30 0 0 0
0.6369 0.0031 0.0228 0 0 0 0
0.5978 0.0035 0.0236 30 0 0 0
0.6425 0.0036 0.0231 30 0 0 0
0.6369 0.0032 0.0241 30 0 0 0
0.6145 0.0033 0.0239 0 0 0 0
0.5922 0.0058 0.0287 30 0 0 0
0.6089 0.0061 0.0303 30 0 0 0
0.6480 0.0058 0.0284 30 0 0 0
0.6648 0.0052 0.0252 0 0 0 0
0.6257 0.0060 0.0128 -30 0 0 0
0.6480 0.0058 0.0145 -30 0 0 0
0.6425 0.0042 0.0091 -30 0 0 0
0.6480 0.0039 0.0094 -30 0 0 0
0.6648 0.0036 0.0107 0 0 0 0
0.6536 0.0051 0.0187 0 30 0 0
0.6480 0.0039 0.0203 0 30 0 0
0.6536 0.0052 0.0207 0 30 0 0
0.6480 0.0047 0.0205 0 0 0 0
0.6369 0.0047 0.0194 30 0 0 0
0.6480 0.0050 0.0188 30 0 0 0
0.6480 0.0038 0.0183 30 0 0 0
0.6648 0.0036 0.0184 0 0 0 0
0.6760 0.0032 0.0197 30 0 0 0
0.6704 0.0037 0.0202 30 0 0 0
0.6648 0.0043 0.0201 30 0 0 0
0.6536 0.0044 0.0196 0 0 0 0
0.6201 0.0041 0.0223 30 0 0 0
0.6257 0.0036 0.0183 30 0 0 0
0.6816 0.0037 0.0208 30 0 0 0
0.6536 0.0035 0.0236 30 0 0 0
0.6536 0.0035 0.0236 0 0 0 0
0.6592 0.0030 0.0280 -30 0 0 0
0.6872 0.0043 0.0283 -30 0 0 0
0.6592 0.0040 0.0280 -30 0 0 0
0.6592 0.0040 0.0280 -30 0 0 0
0.6983 0.0044 0.0289 0 0 0 0
0.6927 0.0042 0.0279 30 0 0 0
0.6648 0.0051 0.0282 30 0 0 0
0.6425 0.0046 0.0281 30 0 0 0
0.6425 0.0044 0.0276 0 0 0 0
