0.5740 0.0002 0.0010 10 0 0 0
0.5840 -0.0001 0.0043 10 0 0 0
0.6040 -0.0003 0.0020 10 0 0 0
0.6040 -0.0003 0.0020 10 0 0 0
0.6160 -0.0007 0.0017 10 0 0 0
0.5960 -0.0014 0.0026 10 0 0 0
0.6120 -0.0013 0.0024 10 0 0 0
0.5920 -0.0012 0.0022 10 0 0 0
0.5920 -0.0012 0.0022 10 0 0 0
0.6060 -0.0012 0.0025 10 0 0 0
0.5940 -0.0015 0.0023 10 0 0 0
0.5940 -0.0016 0.0024 10 0 0 0
0.5940 -0.0016 0.0024 10 0 0 0
0.5980 -0.0022 0.0004 10 0 0 0
0.5960 -0.0020 0.0001 10 0 0 0
0.5960 -0.0020 0.0001 10 0 0 0
0.5880 -0.0021 -0.0007 10 0 0 0
0.5860 -0.0024 -0.0007 10 0 0 0
0.5940 -0.0024 -0.0013 10 0 0 0
0.6000 -0.0026 -0.0013 10 0 0 0
0.6000 -0.0026 -0.0017 10 0 0 0
0.5880 -0.0028 -0.0013 0 0 0 0
0.5940 -0.0023 -0.0005 10 0 0 0
0.5820 -0.0014 -0.0011 10 0 0 0
0.5900 -0.0016 -0.0011 10 0 0 0
0.5940 -0.0017 -0.0008 10 0 0 0
0.5940 -0.0015 -0.0006 10 0 0 0
0.5940 -0.0015 -0.0006 10 0 0 0
0.6040 -0.0011 -0.0007 10 0 0 0
0.6040 -0.0011 -0.0007 10 0 0 0
0.5920 -0.0012 0.0006 10 0 0 0
0.5920 -0.0012 0.0006 10 0 0 0
0.6040 -0.0011 0.0007 10 0 0 0
0.5880 -0.0010 0.0005 10 0 0 0
0.6060 -0.0014 0.0007 10 0 0 0
0.5980 -0.0016 0.0022 10 0 0 0
0.5980 -0.0016 0.0022 10 0 0 0
0.6000 -0.0015 0.0030 10 0 0 0
0.5740 -0.0015 0.0030 10 0 0 0
0.6020 -0.0012 0.0053 10 0 0 0
0.6100 -0.0010 0.0055 10 0 0 0
0.6160 -0.0008 0.0056 10 0 0 0
0.5920 -0.0003 0.0060 10 0 0 0
0.5920 -0.0003 0.0060 10 0 0 0
0.5900 -0.0002 0.0066 10 0 0 0
0.6160 -0.0002 0.0066 10 0 0 0
0.6060 -0.0003 0.0063 10 0 0 0
0.6000 -0.0006 0.0065 10 0 0 0
0.6080 -0.0013 0.0070 10 0 0 0
0.6140 -0.0016 0.0070 10 0 0 0
0.6140 -0.0016 0.0070 10 0 0 0
0.5860 -0.0019 0.0066 10 0 0 0
0.5960 -0.0018 0.0061 10 0 0 0
0.6100 -0.0014 0.0063 10 0 0 0
0.6100 -0.0014 0.0061 10 0 0 0
0.6140 -0.0010 0.0039 10 0 0 0
0.6140 -0.0010 0.0039 10 0 0 0
0.6240 -0.0009 0.0022 10 0 0 0
0.6280 -0.0015 0.0025 10 0 0 0
0.6180 -0.0023 0.0007 10 0 0 0
0.6060 -0.0031 0.0010 10 0 0 0
0.6060 -0.0031 0.0010 10 0 0 0
0.6200 -0.0030 0.0030 10 0 0 0
0.6380 -0.0026 0.0030 10 0 0 0
0.6140 -0.0023 0.0028 10 0 0 0
0.6120 -0.0016 0.0028 10 0 0 0
0.6040 -0.0014 0.0011 10 0 0 0
0.6040 -0.0014 0.0011 10 0 0 0
0.6240 -0.0014 0.0018 10 0 0 0
0.6220 -0.0015 0.0020 10 0 0 0
0.6380 -0.0016 0.0037 10 0 0 0
0.6320 -0.0019 0.0039 0 0 0 0
0.6420 -0.0020 0.0072 10 0 0 0
0.6180 -0.0014 0.0033 10 0 0 0
0.6280 -0.0014 0.0009 10 0 0 0
0.6300 -0.0010 0.0005 10 0 0 0
0.6320 -0.0010 0.0023 10 0 0 0
0.6200 -0.0016 0.0020 0 0 0 0
0.6220 -0.0003 0.0040 10 0 0 0
0.6320 -0.0007 -0.0011 10 0 0 0
0.6240 -0.0009 -0.0002 10 0 0 0
0.6240 -0.0009 -0.0002 10 0 0 0
0.6400 -0.0007 0.0001 10 0 0 0
0.6240 -0.0005 0.0001 0 0 0 0
0.6260 -0.0012 0.0017 10 0 0 0
0.6220 -0.0010 0.0024 10 0 0 0
0.6420 -0.0017 0.0012 10 0 0 0
0.6200 -0.0014 0.0013 10 0 0 0
0.6340 -0.0012 0.0003 10 0 0 0
0.6340 -0.0012 0.0003 10 0 0 0
0.6160 -0.0014 0.0015 0 0 0 0
0.6140 -0.0011 0.0027 10 0 0 0
0.6200 -0.0017 0.0027 10 0 0 0
0.5960 -0.0007 0.0048 10 0 0 0
0.6040 -0.0003 0.0050 10 0 0 0
0.6040 -0.0003 0.0050 10 0 0 0
0.5920 0.0002 0.0061 0 0 0 0
0.5780 -0.0007 0.0065 10 0 0 0
0.6120 -0.0010 0.0097 10 0 0 0
0.6120 -0.0010 0.0097 10 0 0 0
0.6080 -0.0010 0.0100 0 0 0 0
0.5960 -0.0010 0.0089 10 0 0 0
0.6020 -0.0005 0.0126 10 0 0 0
0.5920 -0.0005 0.0125 10 0 0 0
0.6140 -0.0007 0.0132 10 0 0 0
0.6080 -0.0011 0.0132 0 0 0 0
0.6080 -0.0006 0.0124 10 0 0 0
0.6060 -0.0006 0.0128 10 0 0 0
0.6100 -0.0002 0.0119 10 0 0 0
0.5840 -0.0005 0.0097 10 0 0 0
0.6140 -0.0008 0.0092 10 0 0 0
0.6140 -0.0008 0.0092 0 0 0 0
0.5960 -0.0001 0.0077 10 0 0 0
0.5940 -0.0000 0.0069 10 0 0 0
0.6100 -0.0002 0.0068 10 0 0 0
0.6100 -0.0004 0.0076 10 0 0 0
0.6100 -0.0005 0.0072 0 0 0 0
0.6000 -0.0012 0.0088 10 0 0 0
0.6140 -0.0014 0.0090 10 0 0 0
0.6140 -0.0026 0.0087 10 0 0 0
0.6180 -0.0027 0.0083 10 0 0 0
0.6180 -0.0027 0.0083 0 0 0 0
0.6140 -0.0018 0.0070 10 0 0 0
0.5900 -0.0015 0.0068 10 0 0 0
0.6140 -0.0018 0.0057 10 0 0 0
0.6000 -0.0018 0.0051 10 0 0 0
0.6000 -0.0019 0.0050 0 0 0 0
0.6100 -0.0016 0.0069 10 0 0 0
0.6160 -0.0009 0.0068 10 0 0 0
0.6280 -0.0003 0.0083 10 0 0 0
0.6320 -0.0003 0.0084 0 0 0 0
0.6100 -0.0005 0.0090 10 0 0 0
0.6020 -0.0012 0.0117 10 0 0 0
0.6100 -0.0022 0.0134 10 0 0 0
0.6100 -0.0022 0.0134 10 0 0 0
0.6120 -0.0026 0.0128 0 0 0 0
0.6080 -0.0023 0.0126 10 0 0 0
0.6100 -0.0019 0.0132 10 0 0 0
0.6220 -0.0020 0.0146 10 0 0 0
0.6220 -0.0020 0.0146 0 0 0 0
0.6080 -0.0021 0.0157 10 0 0 0
0.6040 -0.0019 0.0145 10 0 0 0
0.6280 -0.0021 0.0138 10 0 0 0
0.6280 -0.0021 0.0138 10 0 0 0
0.6240 -0.0019 0.0123 0 0 0 0
0.6120 -0.0013 0.0117 10 0 0 0
0.6200 -0.0017 0.0092 10 0 0 0
0.6340 -0.0019 0.0097 10 0 0 0
0.6400 -0.0017 0.0095 0 0 0 0
0.6400 -0.0017 0.0095 10 0 0 0
0.6300 -0.0012 0.0106 10 0 0 0
0.6300 -0.0010 0.0093 10 0 0 0
0.6300 -0.0010 0.0093 0 0 0 0
0.6100 -0.0013 0.0085 10 0 0 0
0.6360 -0.0009 0.0071 10 0 0 0
0.6360 -0.0009 0.0071 10 0 0 0
0.6340 -0.0005 0.0056 0 0 0 0
0.5940 -0.0013 0.0043 10 0 0 0
0.5980 -0.0010 0.0053 10 0 0 0
0.6140 -0.0012 0.0047 10 0 0 0
0.5940 -0.0011 0.0044 0 0 0 0
0.6220 0.0001 0.0043 10 0 0 0
0.6100 -0.0014 0.0008 10 0 0 0
0.6140 -0.0017 0.0008 10 0 0 0
0.6220 -0.0015 -0.0008 0 0 0 0
0.6100 -0.0000 -0.0020 10 0 0 0
0.5920 -0.0001 -0.0005 10 0 0 0
0.6020 -0.0005 -0.0005 10 0 0 0
0.5960 -0.0011 0.0000 0 0 0 0
0.6140 -0.0017 0.0009 10 0 0 0
0.6040 -0.0018 0.0016 10 0 0 0
0.6000 -0.0014 0.0006 0 0 0 0
0.6200 -0.0019 0.0011 10 0 0 0
0.6140 -0.0019 0.0010 10 0 0 0
0.6000 -0.0012 -0.0001 0 0 0 0
0.5980 -0.0013 0.0041 10 0 0 0
0.6140 -0.0006 0.0033 10 0 0 0
0.6140 -0.0006 0.0033 10 0 0 0
0.6140 -0.0006 0.0033 0 0 0 0
0.6320 -0.0012 0.0032 10 0 0 0
0.6440 -0.0015 0.0025 10 0 0 0
0.6400 -0.0005 0.0032 10 0 0 0
0.6360 -0.0005 0.0031 10 0 0 0
0.6380 -0.0007 0.0042 0 0 0 0
0.6400 -0.0013 0.0040 10 0 0 0
0.6460 -0.0010 0.0051 10 0 0 0
0.6460 -0.0010 0.0051 10 0 0 0
0.6460 -0.0010 0.0051 10 0 0 0
0.6380 -0.0010 0.0050 10 0 0 0
0.6280 -0.0019 0.0063 0 0 0 0
0.6340 -0.0019 0.0071 10 0 0 0
0.6140 -0.0014 0.0071 10 0 0 0
0.6240 -0.0019 0.0085 10 0 0 0
0.6360 -0.0019 0.0082 10 0 0 0
0.6360 -0.0019 0.0082 10 0 0 0
0.6340 -0.0022 0.0080 0 0 0 0
0.6500 -0.0028 0.0082 10 0 0 0
0.6260 -0.0024 0.0074 10 0 0 0
0.6260 -0.0014 0.0107 10 0 0 0
0.6380 -0.0020 0.0107 10 0 0 0
0.6380 -0.0024 0.0113 10 0 0 0
0.6400 -0.0028 0.0108 0 0 0 0
0.6380 -0.0019 0.0118 10 0 0 0
0.6360 -0.0003 0.0114 10 0 0 0
0.6180 -0.0004 0.0110 10 0 0 0
0.6340 -0.0009 0.0116 10 0 0 0
0.6540 -0.0009 0.0117 10 0 0 0
0.6280 -0.0009 0.0131 0 0 0 0
0.6260 -0.0012 0.0121 10 0 0 0
0.6380 -0.0001 0.0100 10 0 0 0
0.6420 0.0004 0.0098 10 0 0 0
0.6420 -0.0000 0.0109 10 0 0 0
0.6400 -0.0000 0.0109 0 0 0 0
0.6360 -0.0008 0.0106 10 0 0 0
0.6340 0.0009 0.0136 10 0 0 0
0.6200 0.0002 0.0137 10 0 0 0
0.6380 -0.0003 0.0131 10 0 0 0
0.6380 -0.0003 0.0131 0 0 0 0
0.6440 0.0003 0.0120 10 0 0 0
0.6360 -0.0017 0.0111 10 0 0 0
0.6280 -0.0018 0.0113 10 0 0 0
0.6280 -0.0018 0.0113 10 0 0 0
0.6380 -0.0015 0.0107 0 0 0 0
0.6420 -0.0003 0.0107 10 0 0 0
0.6120 -0.0002 0.0095 10 0 0 0
0.6120 -0.0002 0.0095 0 0 0 0
0.6180 -0.0007 0.0101 10 0 0 0
0.6220 0.0001 0.0080 10 0 0 0
0.6360 0.0004 0.0077 10 0 0 0
0.6360 0.0006 0.0072 10 0 0 0
0.6280 0.0005 0.0064 0 0 0 0
0.6440 0.0005 0.0060 10 0 0 0
0.6480 -0.0014 0.0071 10 0 0 0
0.6460 -0.0012 0.0066 10 0 0 0
0.6280 -0.0008 0.0077 10 0 0 0
0.6280 -0.0008 0.0077 10 0 0 0
0.6260 -0.0009 0.0076 0 0 0 0
0.6300 -0.0012 0.0086 10 0 0 0
0.6460 -0.0018 0.0079 10 0 0 0
0.6380 -0.0020 0.0079 10 0 0 0
0.6480 -0.0019 0.0071 10 0 0 0
0.6520 -0.0017 0.0069 0 0 0 0
0.6440 -0.0015 0.0077 10 0 0 0
0.6420 -0.0012 0.0067 10 0 0 0
0.6420 -0.0012 0.0067 10 0 0 0
0.6280 -0.0008 0.0064 10 0 0 0
0.6420 -0.0009 0.0061 10 0 0 0
0.6540 -0.0014 0.0068 0 0 0 0
0.6400 -0.0016 0.0067 10 0 0 0
0.6480 -0.0003 0.0084 10 0 0 0
0.6400 -0.0001 0.0083 10 0 0 0
0.6420 0.0001 0.0098 10 0 0 0
0.6480 -0.0002 0.0097 10 0 0 0
0.6500 -0.0003 0.0094 10 0 0 0
0.6440 -0.0009 0.0096 0 0 0 0
0.6460 -0.0009 0.0074 10 0 0 0
0.6360 -0.0005 0.0055 10 0 0 0
0.6600 -0.0002 0.0056 10 0 0 0
0.6420 -0.0005 0.0045 10 0 0 0
0.6300 -0.0007 0.0048 10 0 0 0
0.6300 -0.0007 0.0048 0 0 0 0
0.6340 -0.0009 0.0039 10 0 0 0
0.6240 -0.0008 0.0050 10 0 0 0
0.6400 -0.0011 0.0052 10 0 0 0
0.6380 -0.0011 0.0052 10 0 0 0
0.6500 -0.0016 0.0058 0 0 0 0
0.6200 -0.0022 0.0082 10 0 0 0
0.6520 -0.0028 0.0112 10 0 0 0
0.6440 -0.0028 0.0116 10 0 0 0
0.6740 -0.0030 0.0115 10 0 0 0
0.6740 -0.0030 0.0115 0 0 0 0
0.6320 -0.0030 0.0081 10 0 0 0
0.6340 -0.0027 0.0079 10 0 0 0
0.6380 -0.0018 0.0071 10 0 0 0
0.6260 -0.0023 0.0050 0 0 0 0
0.6260 -0.0020 0.0018 10 0 0 0
0.6540 -0.0009 0.0002 10 0 0 0
0.6500 -0.0027 -0.0052 0 0 0 0
0.6460 -0.0013 -0.0125 10 0 0 0
0.6480 -0.0015 -0.0126 10 0 0 0
0.6420 -0.0019 -0.0100 10 0 0 0
0.6460 -0.0016 -0.0121 0 0 0 0
0.6520 -0.0022 -0.0018 -10 0 0 0
0.6520 -0.0005 -0.0042 -10 0 0 0
0.6540 0.0001 -0.0094 -10 0 0 0
0.6440 -0.0003 -0.0084 -10 0 0 0
0.6360 -0.0004 -0.0081 0 0 0 0
0.6620 -0.0006 -0.0068 -10 0 0 0
0.6560 -0.0005 -0.0072 -10 0 0 0
0.6560 0.0005 -0.0040 -10 0 0 0
0.6680 0.0008 -0.0039 -10 0 0 0
0.6560 0.0013 -0.0041 0 0 0 0
0.6520 0.0004 -0.0066 -10 0 0 0
0.6700 -0.0000 -0.0061 -10 0 0 0
0.6520 -0.0009 -0.0074 -10 0 0 0
0.6600 -0.0005 -0.0074 -10 0 0 0
0.6460 -0.0002 -0.0057 -10 0 0 0
0.6580 -0.0001 -0.0061 -10 0 0 0
0.6580 -0.0001 -0.0061 0 0 0 0
0.6680 -0.0021 0.0018 -10 0 0 0
0.6460 -0.0018 0.0025 -10 0 0 0
0.6480 -0.0020 0.0026 -10 0 0 0
0.6480 -0.0015 0.0027 -10 0 0 0
0.6560 -0.0015 0.0027 -10 0 0 0
0.6540 -0.0014 0.0009 0 0 0 0
0.6460 -0.0007 -0.0012 -10 0 0 0
0.6340 -0.0007 -0.0056 -10 0 0 0
0.6380 -0.0003 -0.0042 -10 0 0 0
0.6460 -0.0005 -0.0038 -10 0 0 0
0.6420 -0.0009 -0.0040 -10 0 0 0
0.6280 -0.0012 -0.0048 0 0 0 0
0.6500 -0.0023 -0.0015 -10 0 0 0
0.6220 -0.0025 -0.0011 -10 0 0 0
0.6180 -0.0021 -0.0004 -10 0 0 0
0.6380 -0.0018 -0.0005 -10 0 0 0
0.6280 -0.0015 -0.0006 0 0 0 0
0.6240 0.0006 -0.0095 -10 0 0 0
0.6180 0.0006 -0.0100 -10 0 0 0
0.6200 0.0008 -0.0142 -10 0 0 0
0.6200 0.0006 -0.0140 -10 0 0 0
0.6200 0.0006 -0.0140 0 0 0 0
0.6260 -0.0001 -0.0065 -10 0 0 0
0.6180 -0.0010 -0.0045 -10 0 0 0
0.6120 -0.0017 -0.0064 -10 0 0 0
0.6140 -0.0017 -0.0087 -10 0 0 0
0.6080 -0.0011 -0.0072 -10 0 0 0
0.5940 -0.0010 -0.0078 0 0 0 0
0.6120 -0.0002 -0.0076 -10 0 0 0
0.6080 -0.0001 -0.0083 -10 0 0 0
0.6140 -0.0002 -0.0098 -10 0 0 0
0.6320 0.0000 -0.0093 -10 0 0 0
0.6460 0.0000 -0.0085 -10 0 0 0
0.6160 -0.0003 -0.0090 -10 0 0 0
0.6160 -0.0003 -0.0090 -10 0 0 0
0.6220 -0.0003 -0.0104 0 0 0 0
0.6140 -0.0008 -0.0095 -10 0 0 0
0.5860 -0.0009 -0.0085 -10 0 0 0
0.6160 -0.0011 -0.0075 -10 0 0 0
0.6180 -0.0017 -0.0096 -10 0 0 0
0.6020 -0.0017 -0.0081 -10 0 0 0
0.6120 -0.0014 -0.0088 -10 0 0 0
0.6120 -0.0014 -0.0088 0 0 0 0
0.6620 -0.0012 -0.0132 -10 0 0 0
0.6420 -0.0000 -0.0157 -10 0 0 0
0.6680 -0.0007 -0.0137 -10 0 0 0
0.6400 -0.0004 -0.0132 -10 0 0 0
0.6640 -0.0001 -0.0119 -10 0 0 0
0.6640 -0.0001 -0.0119 -10 0 0 0
0.6340 -0.0007 -0.0089 0 0 0 0
0.6500 -0.0011 0.0154 0 0 0 -10
0.6520 -0.0005 0.0137 0 0 0 -10
0.6540 0.0004 0.0148 0 0 0 -10
0.6540 0.0004 0.0148 0 0 0 -10
0.6300 0.0008 0.0142 0 0 0 0
0.6360 -0.0001 0.0056 0 0 0 -10
0.6340 -0.0019 0.0061 0 0 0 -10
0.6520 -0.0018 0.0056 0 0 0 -10
0.6540 -0.0014 0.0061 0 0 0 0
0.6780 -0.0010 0.0132 -10 0 0 0
0.6740 -0.0017 0.0123 -10 0 0 0
0.6500 -0.0014 0.0103 -10 0 0 0
0.6700 -0.0014 0.0098 -10 0 0 0
0.6620 -0.0014 0.0092 -10 0 0 0
0.6620 -0.0014 0.0092 0 0 0 0
0.6700 -0.0005 0.0070 -10 0 0 0
0.6740 -0.0018 0.0064 -10 0 0 0
0.6620 -0.0021 0.0056 -10 0 0 0
0.6740 -0.0020 0.0057 -10 0 0 0
0.6740 -0.0020 0.0057 -10 0 0 0
0.6560 -0.0015 0.0043 -10 0 0 0
0.6560 -0.0015 0.0043 -10 0 0 0
0.6740 -0.0017 0.0041 0 0 0 0
0.6600 -0.0000 0.0087 -10 0 0 0
0.6620 -0.0006 0.0159 -10 0 0 0
0.6680 0.0005 0.0148 -10 0 0 0
0.6680 0.0005 0.0148 -10 0 0 0
0.6660 0.0000 0.0139 -10 0 0 0
0.6580 0.0000 0.0128 0 0 0 0
0.6640 0.0001 0.0158 -10 0 0 0
0.6660 -0.0005 0.0151 -10 0 0 0
0.6840 -0.0007 0.0152 -10 0 0 0
0.6700 -0.0010 0.0137 -10 0 0 0
0.6700 -0.0010 0.0137 0 0 0 0
0.6460 -0.0011 0.0079 -10 0 0 0
0.6260 -0.0023 0.0103 -10 0 0 0
0.6380 -0.0017 0.0105 -10 0 0 0
0.6620 -0.0012 0.0107 -10 0 0 0
0.6620 -0.0012 0.0107 -10 0 0 0
0.6400 -0.0014 0.0104 0 0 0 0
0.6420 -0.0023 0.0099 -10 0 0 0
0.6320 -0.0017 0.0114 -10 0 0 0
0.6560 -0.0016 0.0186 -10 0 0 0
0.6520 -0.0010 0.0222 -10 0 0 0
0.6440 -0.0010 0.0222 -10 0 0 0
0.6400 -0.0012 0.0240 0 0 0 0
0.6280 -0.0004 0.0342 -10 0 0 0
0.5940 -0.0000 0.0354 -10 0 0 0
0.6100 -0.0001 0.0406 -10 0 0 0
0.6120 -0.0001 0.0409 -10 0 0 0
0.6200 -0.0002 0.0429 -10 0 0 0
0.6260 -0.0001 0.0423 0 0 0 0
0.6000 -0.0011 0.0510 0 0 0 -10
0.6100 -0.0012 0.0583 0 0 0 -10
0.6060 -0.0015 0.0629 0 0 0 -10
0.6120 -0.0006 0.0650 0 0 0 -10
0.6120 -0.0006 0.0650 0 0 0 0
0.6040 -0.0007 0.0513 0 0 0 -10
0.6160 -0.0009 0.0504 0 0 0 -10
0.6140 -0.0010 0.0517 0 0 0 -10
0.6120 -0.0014 0.0521 0 0 0 0
0.6260 -0.0005 0.0504 0 0 0 -10
0.6160 -0.0009 0.0467 0 0 0 -10
0.6060 -0.0002 0.0461 0 0 0 -10
0.6060 -0.0006 0.0492 0 0 0 0
0.6180 -0.0013 0.0499 0 0 0 -10
0.6080 -0.0001 0.0484 0 0 0 -10
0.6380 -0.0007 0.0482 0 0 0 -10
0.6380 -0.0010 0.0479 0 0 0 0
0.6260 -0.0008 0.0420 0 0 0 -10
0.6380 -0.0017 0.0506 0 0 0 0
0.6140 -0.0013 0.0485 0 0 0 -10
0.6440 -0.0009 0.0439 0 0 0 -10
0.6220 -0.0009 0.0437 0 0 0 -10
0.6360 -0.0012 0.0436 0 0 0 0
0.6140 -0.0012 0.0326 0 0 0 -10
0.6580 -0.0005 0.0305 0 0 0 -10
0.6600 -0.0016 0.0213 0 0 0 0
0.6680 -0.0018 0.0204 0 0 0 -10
0.6680 -0.0013 0.0267 0 0 0 0
0.6340 -0.0024 0.0298 0 0 0 -10
0.6400 -0.0017 0.0256 0 0 0 -10
0.6300 -0.0015 0.0262 0 0 0 0
0.6260 -0.0028 0.0286 0 0 0 -10
0.6300 -0.0028 0.0318 0 0 0 -10
0.6400 -0.0022 0.0371 0 0 0 0
0.6300 -0.0014 0.0277 0 0 0 -10
0.6360 -0.0010 0.0238 0 0 0 -10
0.6240 -0.0005 0.0262 0 0 0 0
0.6460 -0.0013 0.0218 0 0 0 -10
0.6580 -0.0009 0.0201 0 0 0 -10
0.6560 -0.0023 0.0170 0 0 0 -10
0.6560 -0.0023 0.0170 0 0 0 0
0.6660 -0.0011 0.0107 0 0 0 -10
0.6800 -0.0009 0.0101 0 0 0 -10
0.6760 -0.0013 0.0053 0 0 0 0
0.6700 0.0003 0.0071 -10 0 0 0
0.6720 0.0010 0.0065 -10 0 0 0
0.6560 0.0014 0.0093 -10 0 0 0
0.6680 0.0014 0.0093 -10 0 0 0
0.6720 0.0010 0.0081 0 0 0 0
0.6820 -0.0007 0.0170 -10 0 0 0
0.6660 -0.0005 0.0181 -10 0 0 0
0.6680 0.0000 0.0182 -10 0 0 0
0.6400 -0.0008 0.0180 -10 0 0 0
0.6400 -0.0008 0.0180 -10 0 0 0
0.6500 -0.0009 0.0175 0 0 0 0
0.6680 -0.0015 0.0188 -10 0 0 0
0.6460 -0.0007 0.0195 -10 0 0 0
0.6420 -0.0016 0.0191 -10 0 0 0
0.6600 -0.0027 0.0193 -10 0 0 0
0.6600 -0.0027 0.0193 0 0 0 0
0.6580 -0.0021 0.0199 -10 0 0 0
0.6520 -0.0018 0.0181 -10 0 0 0
0.6460 -0.0010 0.0166 -10 0 0 0
0.6260 -0.0010 0.0165 -10 0 0 0
0.6340 -0.0015 0.0185 0 0 0 0
0.6160 -0.0019 0.0242 -10 0 0 0
0.6180 -0.0015 0.0261 -10 0 0 0
0.6180 -0.0025 0.0251 -10 0 0 0
0.6100 -0.0024 0.0247 -10 0 0 0
0.6240 -0.0021 0.0251 0 0 0 0
0.6280 -0.0026 0.0206 10 0 0 0
0.6260 -0.0020 0.0210 10 0 0 0
0.6520 -0.0025 0.0179 10 0 0 0
0.6540 -0.0021 0.0177 10 0 0 0
0.6340 -0.0016 0.0173 10 0 0 0
0.6400 -0.0014 0.0172 0 0 0 0
0.6800 -0.0003 0.0071 10 0 0 0
0.6800 -0.0003 0.0086 10 0 0 0
0.6780 -0.0006 0.0108 10 0 0 0
0.6860 -0.0008 0.0113 10 0 0 0
0.6840 0.0001 0.0101 10 0 0 0
0.6840 0.0001 0.0101 0 0 0 0
0.6580 -0.0012 0.0096 10 0 0 0
0.6820 -0.0008 0.0076 10 0 0 0
0.6840 -0.0004 0.0074 10 0 0 0
0.6740 -0.0005 0.0068 10 0 0 0
0.6880 -0.0004 0.0051 0 0 0 0
0.6680 0.0007 0.0072 10 0 0 0
0.6600 0.0009 0.0069 10 0 0 0
0.6440 -0.0009 0.0161 10 0 0 0
0.6480 -0.0005 0.0166 0 0 0 0
0.6480 -0.0010 0.0273 10 0 0 0
0.6320 -0.0014 0.0362 10 0 0 0
0.6420 -0.0012 0.0390 10 0 0 0
0.6620 -0.0014 0.0414 0 0 0 0
0.6320 -0.0020 0.0464 10 0 0 0
0.6500 -0.0017 0.0486 10 0 0 0
0.6220 -0.0026 0.0481 10 0 0 0
0.6240 -0.0025 0.0495 10 0 0 0
0.6220 -0.0028 0.0506 0 0 0 0
0.6240 -0.0033 0.0506 0 0 0 -10
0.6220 -0.0016 0.0494 0 0 0 -10
0.6180 -0.0014 0.0516 0 0 0 -10
0.6220 -0.0015 0.0529 0 0 0 -10
0.6220 -0.0015 0.0529 0 0 0 0
0.6340 -0.0005 0.0520 0 0 0 -10
0.6260 -0.0009 0.0482 0 0 0 -10
0.6280 -0.0013 0.0470 0 0 0 -10
0.6360 -0.0011 0.0469 0 0 0 -10
0.6140 -0.0007 0.0466 0 0 0 0
0.6240 -0.0002 0.0467 0 0 0 -10
0.6300 -0.0005 0.0448 0 0 0 -10
0.6400 -0.0004 0.0430 0 0 0 -10
0.6580 -0.0005 0.0418 0 0 0 -10
0.6340 -0.0006 0.0410 0 0 0 0
0.6360 -0.0000 0.0391 0 0 0 -10
0.6260 -0.0004 0.0323 0 0 0 -10
0.6260 -0.0009 0.0346 0 0 0 -10
0.6440 -0.0012 0.0352 0 0 0 -10
0.6380 -0.0017 0.0354 0 0 0 0
0.6260 -0.0011 0.0267 0 0 0 -10
0.6460 -0.0014 0.0245 0 0 0 -10
0.6440 -0.0018 0.0254 0 0 0 -10
0.6240 -0.0008 0.0254 0 0 0 -10
0.6400 0.0000 0.0277 0 0 0 0
0.6540 0.0005 0.0236 0 0 0 -10
0.6340 -0.0002 0.0210 0 0 0 -10
0.6440 0.0001 0.0198 0 0 0 -10
0.6540 0.0004 0.0178 0 0 0 0
0.6400 -0.0016 0.0132 0 0 0 -10
0.6560 -0.0019 0.0103 0 0 0 -10
0.6460 -0.0021 0.0102 0 0 0 -10
0.6520 -0.0019 0.0100 0 0 0 0
0.6720 -0.0008 0.0025 0 0 0 -10
0.6600 0.0006 0.0036 0 0 0 0
0.6600 -0.0007 -0.0058 0 0 0 -10
0.6160 -0.0011 -0.0074 0 0 0 -10
0.6200 0.0002 -0.0072 0 0 0 0
0.6300 -0.0021 -0.0132 -10 0 0 0
0.6200 -0.0028 -0.0134 -10 0 0 0
0.6420 -0.0015 -0.0125 -10 0 0 0
0.6320 -0.0012 -0.0130 -10 0 0 0
0.6380 -0.0011 -0.0134 -10 0 0 0
0.6440 -0.0012 -0.0137 0 0 0 0
0.6320 -0.0000 -0.0191 -10 0 0 0
0.6120 -0.0005 -0.0178 -10 0 0 0
0.6480 -0.0008 -0.0170 -10 0 0 0
0.6220 0.0001 -0.0192 -10 0 0 0
0.6580 0.0007 -0.0206 0 0 0 0
0.6300 0.0004 -0.0224 -10 0 0 0
0.6620 -0.0003 -0.0250 -10 0 0 0
0.6300 -0.0012 -0.0281 -10 0 0 0
0.6300 -0.0010 -0.0284 -10 0 0 0
0.6600 -0.0005 -0.0283 -10 0 0 0
0.6720 -0.0006 -0.0282 0 0 0 0
0.6680 0.0002 -0.0347 -10 0 0 0
0.6660 -0.0012 -0.0364 -10 0 0 0
0.6640 -0.0007 -0.0381 -10 0 0 0
0.6560 -0.0009 -0.0384 -10 0 0 0
0.6360 -0.0015 -0.0373 0 0 0 0
0.6700 -0.0010 -0.0408 -10 0 0 0
0.6680 0.0001 -0.0433 -10 0 0 0
0.7020 0.0005 -0.0452 -10 0 0 0
0.6860 0.0001 -0.0454 -10 0 0 0
0.6860 0.0001 -0.0454 0 0 0 0
0.6800 -0.0010 -0.0452 -10 0 0 0
0.6540 -0.0009 -0.0446 -10 0 0 0
0.6780 -0.0015 -0.0453 -10 0 0 0
0.6640 -0.0017 -0.0450 0 0 0 0
0.6920 -0.0007 -0.0483 -10 0 0 0
0.6900 -0.0005 -0.0503 -10 0 0 0
0.6800 0.0001 -0.0503 0 0 0 0
0.6960 0.0002 -0.0502 -10 0 0 0
0.6800 -0.0005 -0.0520 -10 0 0 0
0.6860 -0.0001 -0.0536 0 0 0 0
0.6780 -0.0005 -0.0572 -10 0 0 0
0.6860 -0.0009 -0.0516 -10 0 0 0
0.6780 -0.0009 -0.0535 -10 0 0 0
0.7020 -0.0008 -0.0534 0 0 0 0
0.6660 -0.0029 -0.0612 0 0 0 10
0.6480 -0.0026 -0.0630 0 0 0 10
0.6540 -0.0023 -0.0643 0 0 0 10
0.6540 -0.0018 -0.0653 0 0 0 0
0.6560 -0.0018 -0.0626 0 0 0 0
0.6860 -0.0013 -0.0607 0 0 0 0
0.6720 -0.0021 -0.0522 0 0 0 10
0.6520 -0.0017 -0.0536 0 0 0 0
0.6720 -0.0026 -0.0524 0 0 0 10
0.6840 -0.0017 -0.0469 0 0 0 10
0.6840 -0.0023 -0.0427 0 0 0 0
0.6960 -0.0014 -0.0395 0 0 0 0
0.7000 -0.0014 -0.0420 0 0 0 10
0.7140 -0.0011 -0.0429 0 0 0 0
0.7140 -0.0001 -0.0328 0 0 0 10
0.7040 -0.0005 -0.0302 0 0 0 10
0.7120 0.0011 -0.0328 0 0 0 0
0.7320 0.0003 -0.0310 0 0 0 10
0.7360 0.0007 -0.0293 0 0 0 10
0.7360 0.0007 -0.0293 0 0 0 0
0.7340 0.0004 -0.0293 0 0 0 10
0.7320 0.0009 -0.0257 0 0 0 0
0.7320 0.0007 -0.0213 0 0 0 10
0.7200 0.0013 -0.0175 0 0 0 10
0.7420 -0.0001 -0.0156 0 0 0 0
