0.5900 0.0003 0.0063 10 0 0 0
0.5980 -0.0009 0.0049 10 0 0 0
0.5800 -0.0002 0.0045 10 0 0 0
0.5920 -0.0003 0.0038 10 0 0 0
0.5920 -0.0003 0.0038 10 0 0 0
0.5900 -0.0014 0.0007 10 0 0 0
0.5700 -0.0017 -0.0011 10 0 0 0
0.5700 -0.0017 -0.0011 10 0 0 0
0.5820 -0.0017 -0.0010 10 0 0 0
0.5900 -0.0012 -0.0046 10 0 0 0
0.5900 -0.0006 -0.0045 10 0 0 0
0.5800 -0.0006 -0.0045 10 0 0 0
0.5840 -0.0005 -0.0049 10 0 0 0
0.5640 -0.0003 -0.0049 10 0 0 0
0.5900 -0.0007 -0.0043 10 0 0 0
0.5960 -0.0004 -0.0021 10 0 0 0
0.5980 -0.0002 -0.0017 10 0 0 0
0.6020 -0.0004 -0.0020 10 0 0 0
0.6020 -0.0004 -0.0020 10 0 0 0
0.5720 -0.0016 -0.0008 10 0 0 0
0.5760 -0.0018 -0.0004 10 0 0 0
0.5760 -0.0018 -0.0004 10 0 0 0
0.5980 -0.0019 -0.0005 10 0 0 0
0.5680 -0.0018 -0.0004 10 0 0 0
0.5740 -0.0013 0.0024 10 0 0 0
0.5940 -0.0008 0.0025 10 0 0 0
0.5880 -0.0009 0.0061 10 0 0 0
0.5980 -0.0013 0.0062 10 0 0 0
0.5980 -0.0013 0.0062 10 0 0 0
0.6060 -0.0017 0.0098 10 0 0 0
0.6040 -0.0015 0.0097 10 0 0 0
0.5960 -0.0011 0.0073 10 0 0 0
0.5960 -0.0011 0.0073 10 0 0 0
0.5860 -0.0011 0.0069 10 0 0 0
0.6000 -0.0011 0.0069 10 0 0 0
0.5900 -0.0013 0.0062 10 0 0 0
0.5960 -0.0012 0.0062 10 0 0 0
0.5840 -0.0009 0.0052 10 0 0 0
0.5840 -0.0009 0.0052 10 0 0 0
0.5800 -0.0006 0.0053 10 0 0 0
0.5900 -0.0007 0.0032 10 0 0 0
0.5880 -0.0009 0.0035 10 0 0 0
0.5940 -0.0012 0.0044 10 0 0 0
0.5980 -0.0011 0.0046 10 0 0 0
0.5840 -0.0010 0.0081 10 0 0 0
0.5840 -0.0010 0.0081 10 0 0 0
0.5860 -0.0014 0.0105 10 0 0 0
0.5940 -0.0019 0.0077 10 0 0 0
0.5940 -0.0019 0.0077 10 0 0 0
0.5740 -0.0011 0.0055 10 0 0 0
0.5920 -0.0006 0.0058 10 0 0 0
0.5920 -0.0006 0.0058 10 0 0 0
0.5800 -0.0004 0.0030 10 0 0 0
0.5900 -0.0007 0.0026 10 0 0 0
0.5880 -0.0008 0.0018 10 0 0 0
0.6000 -0.0005 0.0016 10 0 0 0
0.6000 -0.0005 0.0016 10 0 0 0
0.5900 -0.0001 0.0000 10 0 0 0
0.5900 -0.0001 0.0000 10 0 0 0
0.5940 -0.0001 0.0009 10 0 0 0
0.5880 -0.0003 0.0013 10 0 0 0
0.5840 -0.0004 0.0022 10 0 0 0
0.5840 -0.0004 0.0022 10 0 0 0
0.6140 -0.0006 0.0022 10 0 0 0
0.6100 -0.0006 0.0023 10 0 0 0
0.6020 -0.0005 0.0015 10 0 0 0
0.6100 -0.0003 0.0015 10 0 0 0
0.6100 -0.0003 0.0015 10 0 0 0
0.6160 -0.0005 0.0031 10 0 0 0
0.6160 -0.0005 0.0031 10 0 0 0
0.6100 -0.0010 0.0036 10 0 0 0
0.6060 -0.0017 0.0039 10 0 0 0
0.5900 -0.0018 0.0042 10 0 0 0
0.5900 -0.0018 0.0042 10 0 0 0
0.5860 -0.0016 0.0045 10 0 0 0
0.5940 -0.0013 0.0046 10 0 0 0
0.6120 -0.0015 0.0036 10 0 0 0
0.6120 -0.0015 0.0036 10 0 0 0
0.6140 -0.0019 0.0032 10 0 0 0
0.6180 -0.0019 0.0032 10 0 0 0
0.6040 -0.0014 0.0071 10 0 0 0
0.6040 -0.0014 0.0071 10 0 0 0
0.6040 -0.0007 0.0056 10 0 0 0
0.5980 -0.0005 0.0056 10 0 0 0
0.6240 -0.0003 0.0056 10 0 0 0
0.6040 -0.0009 0.0057 10 0 0 0
0.5980 -0.0013 0.0045 10 0 0 0
0.5980 -0.0013 0.0045 10 0 0 0
0.6080 -0.0013 0.0046 10 0 0 0
0.6300 -0.0009 0.0049 10 0 0 0
0.6200 -0.0005 0.0051 0 0 0 0
0.6200 -0.0011 0.0044 10 0 0 0
0.6340 -0.0012 0.0036 10 0 0 0
0.6380 -0.0011 0.0029 10 0 0 0
0.6260 -0.0013 0.0040 10 0 0 0
0.6320 -0.0015 0.0043 10 0 0 0
0.6340 -0.0014 0.0062 10 0 0 0
0.6340 -0.0014 0.0062 0 0 0 0
0.6460 -0.0012 0.0065 10 0 0 0
0.6360 -0.0013 0.0066 10 0 0 0
0.6320 -0.0015 0.0088 10 0 0 0
0.6500 -0.0012 0.0103 10 0 0 0
0.6300 -0.0002 0.0079 0 0 0 0
0.6540 -0.0006 0.0077 10 0 0 0
0.6240 -0.0016 0.0102 10 0 0 0
0.6260 -0.0014 0.0100 10 0 0 0
0.6380 -0.0014 0.0113 0 0 0 0
0.6320 -0.0011 0.0113 10 0 0 0
0.6180 -0.0019 0.0122 10 0 0 0
0.6380 -0.0021 0.0121 10 0 0 0
0.6280 -0.0016 0.0145 10 0 0 0
0.6460 -0.0015 0.0138 10 0 0 0
0.6460 -0.0015 0.0138 10 0 0 0
0.6480 -0.0014 0.0134 10 0 0 0
0.6320 -0.0009 0.0128 10 0 0 0
0.6360 -0.0007 0.0124 10 0 0 0
0.6180 -0.0003 0.0122 10 0 0 0
0.6180 -0.0003 0.0122 10 0 0 0
0.6340 -0.0003 0.0119 10 0 0 0
0.6440 -0.0008 0.0116 10 0 0 0
0.6520 -0.0009 0.0108 10 0 0 0
0.6460 -0.0012 0.0110 10 0 0 0
0.6440 -0.0013 0.0117 10 0 0 0
0.6440 -0.0013 0.0117 10 0 0 0
0.6580 -0.0011 0.0115 10 0 0 0
0.6560 -0.0008 0.0118 10 0 0 0
0.6480 -0.0010 0.0121 10 0 0 0
0.6580 -0.0010 0.0117 10 0 0 0
0.6520 -0.0010 0.0121 10 0 0 0
0.6520 -0.0009 0.0121 10 0 0 0
0.6520 -0.0009 0.0121 0 0 0 0
0.6320 -0.0014 0.0122 10 0 0 0
0.6380 -0.0016 0.0122 10 0 0 0
0.6340 -0.0019 0.0129 10 0 0 0
0.6300 -0.0028 0.0153 0 0 0 0
0.6400 -0.0023 0.0136 10 0 0 0
0.6560 -0.0024 0.0160 10 0 0 0
0.6420 -0.0021 0.0165 0 0 0 0
0.6560 -0.0012 0.0173 10 0 0 0
0.6400 -0.0012 0.0198 0 0 0 0
0.6560 -0.0006 0.0184 10 0 0 0
0.6500 -0.0009 0.0160 10 0 0 0
0.6680 -0.0009 0.0149 10 0 0 0
0.6600 -0.0009 0.0144 0 0 0 0
0.6740 -0.0011 0.0102 10 0 0 0
0.6760 -0.0014 0.0073 10 0 0 0
0.6700 -0.0017 0.0072 10 0 0 0
0.6700 -0.0017 0.0072 0 0 0 0
0.6740 -0.0017 0.0028 10 0 0 0
0.6680 -0.0015 0.0012 10 0 0 0
0.6720 -0.0018 -0.0003 10 0 0 0
0.6960 -0.0024 -0.0001 0 0 0 0
0.6600 -0.0012 0.0003 10 0 0 0
0.6820 -0.0023 0.0059 10 0 0 0
0.6780 -0.0024 0.0062 10 0 0 0
0.6780 -0.0022 0.0064 10 0 0 0
0.6820 -0.0017 0.0074 0 0 0 0
0.6340 -0.0011 0.0079 10 0 0 0
0.6500 -0.0003 0.0079 10 0 0 0
0.6580 -0.0007 0.0073 10 0 0 0
0.6640 -0.0012 0.0059 0 0 0 0
0.6520 -0.0012 0.0087 10 0 0 0
0.6700 -0.0008 0.0077 10 0 0 0
0.6640 -0.0009 0.0073 0 0 0 0
0.6640 -0.0016 0.0060 10 0 0 0
0.6720 -0.0010 0.0052 10 0 0 0
0.6720 -0.0005 0.0054 10 0 0 0
0.6700 -0.0005 0.0054 0 0 0 0
0.6820 -0.0016 0.0024 10 0 0 0
0.6900 -0.0011 0.0001 10 0 0 0
0.6920 -0.0011 0.0015 0 0 0 0
0.6900 -0.0022 0.0042 10 0 0 0
0.6980 -0.0019 0.0085 10 0 0 0
0.7000 -0.0022 0.0058 10 0 0 0
0.7000 -0.0022 0.0058 0 0 0 0
0.7060 -0.0019 0.0226 0 0 0 0
0.7020 -0.0022 0.0155 0 0 0 -10
0.7060 -0.0015 0.0153 0 0 0 0
0.6960 -0.0020 -0.0039 0 0 0 -10
