0.5360 0.0502 -0.0504 0 0 0 30
0.5560 0.0506 -0.0539 0 0 0 30
0.5540 0.0500 -0.0539 0 0 0 30
0.5540 0.0500 -0.0539 0 0 0 0
0.5580 0.0497 -0.0539 0 0 0 30
0.5540 0.0510 -0.0524 0 0 0 30
0.5580 0.0516 -0.0509 0 0 0 0
0.5460 0.0519 -0.0479 0 0 0 30
0.5600 0.0514 -0.0473 0 0 0 30
0.5500 0.0508 -0.0449 0 0 0 0
0.5780 0.0494 -0.0405 0 0 0 30
0.5700 0.0480 -0.0361 0 0 0 30
0.5620 0.0472 -0.0392 0 0 0 0
0.5580 0.0478 -0.0402 0 0 0 30
0.5540 0.0480 -0.0410 0 0 0 30
0.5440 0.0481 -0.0401 0 0 0 0
0.5480 0.0490 -0.0398 0 0 0 30
0.5440 0.0490 -0.0384 0 0 0 30
0.5520 0.0484 -0.0368 0 0 0 0
0.5500 0.0486 -0.0276 0 0 0 30
0.5380 0.0485 -0.0242 0 0 0 0
0.5520 0.0485 -0.0207 0 0 0 30
0.5440 0.0489 -0.0230 0 0 0 0
0.5440 0.0509 -0.0167 0 0 0 30
0.5600 0.0503 -0.0178 0 0 0 30
0.5600 0.0499 -0.0155 0 0 0 0
0.5640 0.0501 -0.0154 0 0 0 30
0.5540 0.0497 -0.0121 0 0 0 30
0.5500 0.0501 -0.0120 0 0 0 0
0.5560 0.0491 -0.0082 0 0 0 30
0.5580 0.0488 -0.0090 0 0 0 30
0.5700 0.0496 -0.0088 0 0 0 0
0.5480 0.0487 -0.0069 0 0 0 0
0.5400 0.0484 -0.0045 0 0 -30 0
0.5620 0.0482 0.0001 0 0 -30 0
0.5580 0.0480 0.0043 0 0 -30 0
0.5220 0.0485 0.0073 0 0 -30 0
0.5620 0.0481 0.0074 0 0 -30 0
0.5280 0.0486 0.0096 0 0 -30 0
0.5440 0.0490 0.0095 0 0 -30 0
0.5440 0.0490 0.0095 0 0 -30 0
0.5500 0.0500 0.0238 0 0 -30 0
0.5500 0.0500 0.0238 0 0 -30 0
0.5420 0.0507 0.0233 0 0 -30 0
0.5380 0.0514 0.0202 0 0 -30 0
0.5220 0.0527 0.0196 0 0 -30 0
0.5460 0.0537 0.0166 0 0 -30 0
0.5460 0.0537 0.0166 0 0 -30 0
0.5360 0.0549 0.0161 0 0 -30 0
0.5340 0.0559 0.0097 0 0 -30 0
0.5060 0.0586 0.0089 0 0 -30 0
0.5180 0.0597 0.0091 0 0 -30 0
0.5160 0.0608 0.0074 0 0 -30 0
0.5240 0.0621 0.0067 0 0 -30 0
0.5440 0.0627 0.0061 0 0 -30 0
0.5360 0.0641 0.0054 0 0 -30 0
0.5360 0.0641 0.0054 0 0 -30 0
0.5340 0.0654 0.0033 0 0 -30 0
0.5360 0.0668 0.0020 0 0 0 0
0.5280 0.0694 0.0036 0 0 30 0
0.5540 0.0736 0.0062 0 0 30 0
0.5520 0.0754 0.0071 0 0 30 0
0.5680 0.0767 0.0086 0 0 30 0
0.5680 0.0773 0.0073 0 0 30 0
0.5520 0.0780 0.0067 0 0 30 0
0.6020 0.0785 0.0065 0 0 30 0
0.5820 0.0790 0.0087 0 0 30 0
0.5900 0.0790 0.0086 0 0 30 0
0.5900 0.0790 0.0086 0 0 30 0
0.5840 0.0790 0.0087 0 0 30 0
0.5780 0.0780 0.0104 0 0 30 0
0.5620 0.0772 0.0106 0 0 30 0
0.5620 0.0772 0.0106 0 0 30 0
0.6000 0.0759 0.0126 0 0 30 0
0.5980 0.0757 0.0140 0 0 30 0
0.5980 0.0757 0.0140 0 0 30 0
0.6140 0.0750 0.0123 0 0 30 0
0.6020 0.0746 0.0121 0 0 30 0
0.6020 0.0746 0.0121 0 0 30 0
0.5980 0.0732 0.0118 0 0 30 0
0.5680 0.0715 0.0127 0 0 30 0
0.5680 0.0715 0.0127 0 0 30 0
0.5740 0.0694 0.0152 0 0 30 0
0.5660 0.0677 0.0151 0 0 30 0
0.5700 0.0667 0.0152 0 0 30 0
0.5640 0.0657 0.0171 0 0 30 0
0.5500 0.0650 0.0170 0 0 30 0
0.5500 0.0650 0.0170 0 0 30 0
0.5640 0.0643 0.0168 0 0 30 0
0.5440 0.0628 0.0142 0 0 30 0
0.5580 0.0607 0.0134 0 0 30 0
0.5640 0.0586 0.0132 0 0 30 0
0.5380 0.0559 0.0129 0 0 30 0
0.5380 0.0559 0.0129 0 0 30 0
0.5460 0.0548 0.0109 0 0 30 0
0.5660 0.0537 0.0105 0 0 30 0
0.5560 0.0513 0.0084 0 0 30 0
0.5440 0.0494 0.0047 0 0 30 0
0.5380 0.0476 0.0046 0 0 30 0
0.5380 0.0476 0.0046 0 0 0 0
0.5240 0.0435 0.0057 0 0 30 0
0.5000 0.0389 0.0073 0 0 30 0
0.5360 0.0363 0.0075 0 0 0 0
0.5220 0.0341 0.0080 0 0 30 0
0.5420 0.0327 0.0033 0 0 30 0
0.5180 0.0319 0.0032 0 0 0 0
0.5080 0.0307 0.0033 0 0 30 0
0.5100 0.0293 0.0017 0 0 30 0
0.5120 0.0284 0.0026 0 0 0 0
0.5100 0.0270 0.0054 0 0 30 0
0.5340 0.0260 0.0074 0 0 30 0
0.5540 0.0245 0.0074 0 0 0 0
0.5100 0.0207 0.0055 0 0 30 0
0.5440 0.0192 0.0079 0 0 30 0
0.5240 0.0188 0.0071 0 0 0 0
0.5020 0.0175 0.0079 0 0 30 0
0.5040 0.0143 0.0069 0 0 30 0
0.5040 0.0143 0.0069 0 0 0 0
0.5280 0.0099 0.0031 0 0 30 0
0.5280 0.0067 0.0013 0 0 30 0
0.5240 0.0057 -0.0055 0 0 0 0
0.5340 0.0049 -0.0064 0 0 30 0
0.5540 0.0032 -0.0033 0 0 30 0
0.5380 0.0022 -0.0001 0 0 0 0
0.5200 0.0017 0.0010 0 0 30 0
0.5500 0.0009 0.0021 0 0 30 0
0.5420 0.0003 0.0004 0 0 0 0
0.5340 -0.0047 -0.0003 0 30 0 0
0.5260 -0.0046 -0.0011 0 30 0 0
0.5360 -0.0057 -0.0038 0 30 0 0
0.5240 -0.0055 -0.0042 0 30 0 0
0.5380 -0.0046 -0.0033 0 30 0 0
0.5460 -0.0038 -0.0035 0 30 0 0
0.5460 -0.0032 -0.0032 0 30 0 0
0.5200 -0.0032 -0.0032 0 30 0 0
0.5360 -0.0033 -0.0039 0 30 0 0
0.5220 -0.0034 -0.0038 0 30 0 0
0.5080 -0.0038 -0.0041 0 30 0 0
0.5140 -0.0037 -0.0041 0 30 0 0
0.5140 -0.0041 -0.0040 0 30 0 0
0.5120 -0.0041 -0.0040 0 30 0 0
0.5140 -0.0047 -0.0048 0 30 0 0
0.5220 -0.0044 -0.0046 0 30 0 0
0.5160 -0.0044 -0.0033 0 30 0 0
0.5320 -0.0040 -0.0031 0 30 0 0
0.5380 -0.0038 -0.0035 0 30 0 0
0.5360 -0.0037 -0.0037 0 30 0 0
0.5360 -0.0037 -0.0037 0 30 0 0
0.5180 -0.0051 -0.0036 0 30 0 0
0.5180 -0.0051 -0.0036 0 30 0 0
0.5100 -0.0049 -0.0039 0 30 0 0
0.5160 -0.0044 -0.0029 0 30 0 0
0.5320 -0.0042 -0.0026 0 30 0 0
0.5140 -0.0038 -0.0024 0 30 0 0
0.5260 -0.0035 -0.0030 0 30 0 0
0.5180 -0.0040 -0.0024 0 30 0 0
0.5400 -0.0046 -0.0020 0 30 0 0
0.5400 -0.0046 -0.0020 0 30 0 0
0.5240 -0.0053 -0.0021 0 30 0 0
0.5300 -0.0048 -0.0016 0 30 0 0
0.5220 -0.0041 -0.0001 0 30 0 0
0.5220 -0.0041 -0.0001 0 30 0 0
0.5300 -0.0030 0.0003 0 30 0 0
0.5200 -0.0027 -0.0006 0 30 0 0
0.5220 -0.0024 -0.0004 0 30 0 0
0.5260 -0.0023 -0.0011 0 30 0 0
0.5300 -0.0029 -0.0006 0 30 0 0
0.5220 -0.0034 0.0003 0 30 0 0
0.5280 -0.0040 0.0008 0 30 0 0
0.5200 -0.0041 0.0010 0 30 0 0
0.5160 -0.0042 -0.0004 0 30 0 0
0.5560 -0.0040 0.0001 0 30 0 0
0.5240 -0.0041 0.0008 0 30 0 0
0.5260 -0.0044 0.0010 0 30 0 0
0.5260 -0.0044 0.0010 0 30 0 0
0.5400 -0.0051 0.0012 0 30 0 0
0.5320 -0.0049 0.0029 0 30 0 0
0.5400 -0.0041 0.0035 0 30 0 0
0.5120 -0.0039 0.0035 0 30 0 0
0.5260 -0.0036 0.0035 0 30 0 0
0.5260 -0.0036 0.0035 0 30 0 0
0.5420 -0.0034 0.0045 0 30 0 0
0.5440 -0.0034 0.0051 0 30 0 0
0.5520 -0.0035 0.0050 0 30 0 0
0.5520 -0.0035 0.0050 0 30 0 0
0.5300 -0.0044 0.0054 0 30 0 0
0.5400 -0.0051 0.0057 0 30 0 0
0.5400 -0.0051 0.0057 0 30 0 0
0.5300 -0.0047 0.0053 0 30 0 0
0.5280 -0.0042 0.0047 0 30 0 0
0.5180 -0.0041 0.0045 0 30 0 0
0.5180 -0.0041 0.0045 0 30 0 0
0.5160 -0.0045 -0.0001 0 30 0 0
0.5160 -0.0045 -0.0001 0 30 0 0
0.5120 -0.0051 -0.0002 0 30 0 0
0.5080 -0.0061 -0.0001 0 30 0 0
0.5200 -0.0061 -0.0018 0 30 0 0
0.5200 -0.0061 -0.0018 0 30 0 0
0.5200 -0.0058 -0.0016 0 30 0 0
0.5180 -0.0046 -0.0014 0 0 0 0
0.5080 -0.0046 0.0030 0 30 0 0
0.4960 -0.0055 0.0028 0 30 0 0
0.4960 -0.0055 0.0028 0 30 0 0
0.5160 -0.0048 0.0029 0 30 0 0
0.5080 -0.0046 0.0000 0 30 0 0
0.5080 -0.0046 0.0000 0 30 0 0
0.5280 -0.0041 -0.0005 0 30 0 0
0.5440 -0.0035 -0.0003 0 0 0 0
0.5160 -0.0053 -0.0039 0 30 0 0
0.4960 -0.0031 0.0019 0 30 0 0
0.5100 -0.0031 0.0062 0 30 0 0
0.5020 -0.0031 0.0065 0 30 0 0
0.5080 -0.0021 0.0069 0 0 0 0
0.4980 -0.0030 0.0066 0 30 0 0
0.4980 -0.0032 0.0100 0 30 0 0
0.4960 -0.0029 0.0099 0 30 0 0
0.4960 -0.0029 0.0099 0 0 0 0
0.6120 -0.0027 0.0022 0 -30 0 0
0.5940 -0.0023 0.0028 0 -30 0 0
0.6060 -0.0023 0.0033 0 -30 0 0
0.5780 -0.0029 0.0032 0 0 0 0
0.5920 -0.0044 0.0058 0 -30 0 0
0.5920 -0.0037 0.0040 0 -30 0 0
0.6100 -0.0037 0.0049 0 -30 0 0
0.6000 -0.0044 0.0056 0 -30 0 0
0.5960 -0.0053 0.0059 0 0 0 0
0.5800 -0.0044 0.0052 0 -30 0 0
0.5860 -0.0057 0.0041 0 -30 0 0
0.5820 -0.0051 0.0040 0 -30 0 0
0.5760 -0.0051 0.0040 0 -30 0 0
0.5860 -0.0050 0.0022 0 -30 0 0
0.5860 -0.0050 0.0022 0 0 0 0
0.5980 -0.0057 0.0041 0 -30 0 0
0.5800 -0.0044 0.0049 0 -30 0 0
0.5700 -0.0040 0.0017 0 -30 0 0
0.5740 -0.0042 0.0017 0 -30 0 0
0.5760 -0.0040 0.0025 0 -30 0 0
0.5820 -0.0040 0.0026 30 -30 0 0
0.5840 -0.0041 0.0042 30 -30 0 0
0.5840 -0.0041 0.0042 30 -30 0 0
0.5940 -0.0036 0.0028 30 -30 0 0
0.5940 -0.0036 0.0028 30 -30 0 0
0.6200 -0.0045 0.0011 30 -30 0 0
0.5900 -0.0048 0.0027 30 -30 0 0
0.5900 -0.0048 0.0027 30 -30 0 0
0.6040 -0.0049 0.0026 30 -30 0 0
0.5800 -0.0050 0.0051 30 -30 0 0
0.5960 -0.0045 0.0050 30 -30 0 0
0.5840 -0.0040 0.0059 30 -30 0 0
0.5840 -0.0040 0.0059 30 -30 0 0
0.6000 -0.0032 0.0063 30 -30 0 0
0.5900 -0.0029 0.0079 30 -30 0 0
0.5960 -0.0031 0.0076 30 -30 0 0
0.5840 -0.0033 0.0069 30 -30 0 0
0.6020 -0.0036 0.0062 30 -30 0 0
0.6020 -0.0036 0.0062 30 -30 0 0
0.5740 -0.0038 0.0064 30 -30 0 0
0.5940 -0.0042 0.0060 30 -30 0 0
0.5980 -0.0040 0.0056 30 -30 0 0
0.5980 -0.0045 0.0075 0 -30 0 0
0.5980 -0.0045 0.0075 0 -30 0 0
0.6020 -0.0032 0.0080 0 -30 0 0
0.6020 -0.0032 0.0080 0 -30 0 0
0.5980 -0.0021 0.0106 0 -30 0 0
0.5980 -0.0022 0.0102 0 -30 0 0
0.5940 -0.0022 0.0102 0 -30 0 0
0.5940 -0.0025 0.0118 0 -30 0 0
0.6080 -0.0027 0.0117 0 -30 0 0
0.5840 -0.0033 0.0123 0 -30 0 0
0.5760 -0.0031 0.0121 0 -30 0 0
0.5480 -0.0019 0.0125 0 -30 0 0
0.5480 -0.0019 0.0125 0 -30 0 0
0.5720 -0.0023 0.0121 0 -30 0 0
0.5900 -0.0024 0.0106 0 -30 0 0
0.6000 -0.0037 0.0101 0 -30 0 0
0.5960 -0.0040 0.0097 0 -30 0 0
0.5820 -0.0042 0.0098 0 -30 0 0
0.5820 -0.0040 0.0098 0 -30 0 0
0.5980 -0.0040 0.0098 0 -30 0 0
0.6040 -0.0036 0.0103 0 -30 0 0
0.5720 -0.0041 0.0099 0 -30 0 0
0.5760 -0.0040 0.0093 0 -30 0 0
0.5840 -0.0044 0.0095 0 -30 0 0
0.5840 -0.0044 0.0093 0 -30 0 0
0.5900 -0.0044 0.0093 0 -30 0 0
0.5920 -0.0043 0.0087 0 -30 0 0
0.5720 -0.0039 0.0100 0 -30 0 0
0.5920 -0.0046 0.0095 0 -30 0 0
0.5920 -0.0046 0.0095 0 -30 0 0
0.5740 -0.0044 0.0103 0 -30 0 0
0.5740 -0.0044 0.0103 0 -30 0 0
0.5880 -0.0035 0.0105 0 -30 0 0
0.5960 -0.0030 0.0109 0 -30 0 0
0.5940 -0.0029 0.0106 0 -30 0 0
0.5860 -0.0028 0.0110 0 -30 0 0
0.6040 -0.0034 0.0112 0 -30 0 0
0.5980 -0.0038 0.0111 0 -30 0 0
0.5980 -0.0036 0.0108 0 -30 0 0
0.5900 -0.0040 0.0110 0 -30 0 0
0.5900 -0.0040 0.0110 0 -30 0 0
0.5860 -0.0035 0.0106 0 -30 0 0
0.5760 -0.0027 0.0095 0 -30 0 0
0.5760 -0.0027 0.0095 0 -30 0 0
0.5760 -0.0027 0.0095 0 -30 0 0
0.5800 -0.0029 0.0083 0 -30 0 0
0.5900 -0.0031 0.0088 0 -30 0 0
0.5960 -0.0031 0.0088 0 -30 0 0
0.5760 -0.0041 0.0082 0 -30 0 0
0.5600 -0.0036 0.0081 0 -30 0 0
0.5600 -0.0036 0.0081 0 -30 0 0
0.5460 -0.0032 0.0096 0 -30 0 0
0.5560 -0.0032 0.0096 0 -30 0 0
0.5600 -0.0027 0.0102 0 -30 0 0
0.5440 -0.0026 0.0111 0 -30 0 0
0.5540 -0.0031 0.0114 0 -30 0 0
0.5640 -0.0036 0.0113 0 -30 0 0
0.5640 -0.0036 0.0113 0 -30 0 0
0.5480 -0.0046 0.0114 0 -30 0 0
0.5540 -0.0049 0.0117 0 -30 0 0
0.5740 -0.0051 0.0115 0 -30 0 0
0.5740 -0.0051 0.0115 0 -30 0 0
0.5640 -0.0043 0.0110 0 -30 0 0
0.5760 -0.0040 0.0108 0 -30 0 0
0.5560 -0.0041 0.0098 0 -30 0 0
0.5540 -0.0040 0.0100 0 -30 0 0
0.5560 -0.0040 0.0110 0 -30 0 0
0.5760 -0.0037 0.0108 0 -30 0 0
0.5740 -0.0038 0.0103 0 0 0 0
0.5600 -0.0040 0.0107 0 -30 0 0
0.5720 -0.0043 0.0098 0 -30 0 0
0.5720 -0.0044 0.0096 0 -30 0 0
0.5720 -0.0044 0.0096 0 -30 0 0
0.5500 -0.0040 0.0096 0 -30 0 0
0.5740 -0.0040 0.0110 0 0 0 0
0.5900 -0.0033 0.0083 0 -30 0 0
0.6100 -0.0025 0.0047 0 -30 0 0
0.6060 -0.0021 0.0092 0 -30 0 0
0.6100 -0.0018 0.0096 0 -30 0 0
0.6040 -0.0019 0.0106 0 -30 0 0
0.6040 -0.0016 0.0109 0 -30 0 0
0.5920 -0.0016 0.0109 0 0 0 0
0.5980 -0.0012 0.0088 0 -30 0 0
0.6100 -0.0013 0.0083 0 -30 0 0
0.6040 -0.0013 0.0051 0 -30 0 0
0.6000 -0.0015 0.0048 0 0 0 0
0.6320 -0.0013 0.0025 0 -30 0 0
0.6460 -0.0010 0.0001 0 -30 0 0
0.6380 -0.0008 -0.0004 0 -30 0 0
0.6500 -0.0008 -0.0004 0 -30 0 0
0.6500 -0.0008 -0.0004 0 -30 0 0
0.6240 -0.0008 0.0002 0 -30 0 0
0.6340 -0.0015 -0.0007 0 0 0 0
0.6320 -0.0011 -0.0006 0 -30 0 0
0.6200 -0.0010 -0.0014 0 -30 0 0
0.6160 -0.0012 -0.0010 0 -30 0 0
0.6200 -0.0014 -0.0028 0 -30 0 0
0.6220 -0.0019 -0.0025 0 -30 0 0
0.6300 -0.0016 -0.0036 0 -30 0 0
0.6280 -0.0019 -0.0027 0 0 0 0
0.6420 -0.0023 -0.0009 0 -30 0 0
0.6340 -0.0029 -0.0025 0 -30 0 0
0.6340 -0.0029 -0.0025 0 -30 0 0
0.6240 -0.0024 -0.0011 0 -30 0 0
0.6280 -0.0021 -0.0030 0 0 0 0
0.6240 -0.0041 -0.0013 0 -30 0 0
0.6380 -0.0039 -0.0008 0 -30 0 0
0.6380 -0.0038 -0.0008 0 -30 0 0
0.6240 -0.0038 -0.0008 0 -30 0 0
0.6180 -0.0039 -0.0012 0 -30 0 0
0.6560 -0.0044 -0.0004 0 -30 0 0
0.6180 -0.0047 -0.0002 0 -30 0 0
0.6180 -0.0047 -0.0002 0 -30 0 0
0.6540 -0.0046 0.0005 0 -30 0 0
0.6480 -0.0042 0.0007 0 -30 0 0
0.6460 -0.0040 0.0007 0 -30 0 0
0.6240 -0.0042 0.0004 0 -30 0 0
0.6240 -0.0042 0.0004 0 -30 0 0
0.6480 -0.0046 0.0009 0 -30 0 0
0.6420 -0.0051 0.0016 0 -30 0 0
0.6360 -0.0053 0.0027 0 -30 0 0
0.6500 -0.0054 0.0023 0 -30 0 0
0.6320 -0.0054 0.0027 0 -30 0 0
0.6400 -0.0056 0.0014 0 -30 0 0
0.6400 -0.0050 0.0018 0 0 0 0
0.6280 -0.0039 0.0044 0 -30 0 0
0.6240 -0.0034 0.0052 0 -30 0 0
0.6380 -0.0031 0.0036 0 -30 0 0
0.6380 -0.0033 0.0029 0 -30 0 0
0.6200 -0.0033 0.0031 0 -30 0 0
0.6200 -0.0033 0.0031 0 -30 0 0
0.6320 -0.0032 0.0014 0 -30 0 0
0.6060 -0.0025 0.0000 0 -30 0 0
0.6320 -0.0025 0.0000 0 -30 0 0
0.6260 -0.0019 -0.0004 0 -30 0 0
0.6220 -0.0017 -0.0020 0 -30 0 0
0.6060 -0.0014 -0.0025 0 -30 0 0
0.6260 -0.0021 -0.0029 0 -30 0 0
0.6300 -0.0025 -0.0032 0 -30 0 0
0.6480 -0.0031 -0.0034 0 -30 0 0
0.6380 -0.0033 -0.0035 0 -30 0 0
0.6380 -0.0033 -0.0035 0 -30 0 0
0.6520 -0.0029 -0.0058 0 -30 0 0
0.6520 -0.0029 -0.0058 0 -30 0 0
0.6380 -0.0025 -0.0055 0 -30 0 0
0.6440 -0.0024 -0.0047 0 -30 0 0
0.6420 -0.0022 -0.0043 0 -30 0 0
0.6420 -0.0025 -0.0045 0 -30 0 0
0.6420 -0.0025 -0.0045 0 -30 0 0
0.6360 -0.0023 -0.0036 0 -30 0 0
0.6280 -0.0023 -0.0044 0 -30 0 0
0.6320 -0.0021 -0.0038 0 -30 0 0
0.6320 -0.0021 -0.0038 0 -30 0 0
0.6560 -0.0019 -0.0026 0 -30 0 0
0.6560 -0.0019 -0.0026 0 -30 0 0
0.6380 -0.0028 -0.0008 0 -30 0 0
0.6380 -0.0028 -0.0008 0 -30 0 0
0.6520 -0.0038 0.0005 0 -30 0 0
0.6540 -0.0036 0.0006 0 -30 0 0
0.6560 -0.0027 0.0011 0 -30 0 0
0.6640 -0.0031 -0.0007 0 -30 0 0
0.6440 -0.0032 -0.0005 0 -30 0 0
0.6400 -0.0031 -0.0024 0 -30 0 0
0.6480 -0.0031 -0.0021 0 -30 0 0
0.6620 -0.0031 -0.0039 0 -30 0 0
0.6620 -0.0031 -0.0039 0 -30 0 0
0.6540 -0.0038 -0.0028 0 -30 0 0
0.6560 -0.0045 -0.0011 0 -30 0 0
0.6420 -0.0051 -0.0009 0 -30 0 0
0.6420 -0.0051 -0.0009 0 0 0 0
0.6460 -0.0055 0.0022 0 -30 0 0
0.6540 -0.0044 -0.0013 0 -30 0 0
0.6620 -0.0051 -0.0020 0 -30 0 0
0.6620 -0.0051 -0.0020 0 -30 0 0
0.6460 -0.0055 -0.0017 0 0 0 0
0.6440 -0.0054 0.0017 30 0 0 0
0.6500 -0.0038 0.0040 30 0 0 0
0.6500 -0.0038 0.0040 30 0 0 0
0.6500 -0.0045 0.0038 30 0 0 0
0.6500 -0.0051 0.0030 30 0 0 0
0.6640 -0.0050 0.0034 30 0 0 0
0.6640 -0.0050 0.0034 30 0 0 0
0.6420 -0.0044 0.0052 30 0 0 0
0.6420 -0.0044 0.0052 30 0 0 0
0.6520 -0.0045 0.0050 30 0 0 0
0.6440 -0.0040 0.0073 30 0 0 0
0.6480 -0.0034 0.0071 30 0 0 0
0.6480 -0.0034 0.0071 30 0 0 0
0.6500 -0.0036 0.0057 30 0 0 0
0.6480 -0.0038 0.0059 30 0 0 0
0.6420 -0.0038 0.0057 30 0 0 0
0.6520 -0.0034 0.0058 30 0 0 0
0.6520 -0.0034 0.0058 30 0 0 0
0.6520 -0.0031 0.0048 30 0 0 0
0.6520 -0.0031 0.0048 30 0 0 0
0.6540 -0.0035 0.0030 30 0 0 0
0.6320 -0.0038 0.0006 30 0 0 0
0.6340 -0.0038 0.0009 30 0 0 0
0.6340 -0.0038 0.0009 30 0 0 0
0.6520 -0.0037 -0.0003 30 0 0 0
0.6480 -0.0033 0.0000 30 0 0 0
0.6540 -0.0026 -0.0015 30 0 0 0
0.6580 -0.0023 -0.0011 30 0 0 0
0.6600 -0.0026 0.0020 30 0 0 0
0.6580 -0.0031 0.0021 30 0 0 0
0.6580 -0.0031 0.0021 30 0 0 0
0.6520 -0.0028 0.0017 30 0 0 0
0.6520 -0.0025 0.0002 30 0 0 0
0.6460 -0.0023 0.0006 30 0 0 0
0.6460 -0.0023 0.0006 30 0 0 0
0.6420 -0.0027 0.0012 30 0 0 0
0.6340 -0.0032 -0.0012 30 0 0 0
0.6340 -0.0032 -0.0012 30 0 0 0
0.6240 -0.0033 0.0041 30 0 0 0
0.6340 -0.0034 0.0028 30 0 0 0
0.6480 -0.0033 0.0031 30 0 0 0
0.6420 -0.0039 0.0049 30 0 0 0
0.6420 -0.0039 0.0049 30 0 0 0
0.6420 -0.0036 0.0063 30 0 0 0
0.6420 -0.0036 0.0063 30 0 0 0
0.6360 -0.0044 0.0076 30 0 0 0
0.6340 -0.0042 0.0074 30 0 0 0
0.6400 -0.0041 0.0089 30 0 0 0
0.6400 -0.0041 0.0089 30 0 0 0
0.6400 -0.0038 0.0087 30 0 0 0
0.6440 -0.0031 0.0100 30 0 0 0
0.6440 -0.0027 0.0102 30 0 0 0
0.6440 -0.0027 0.0102 30 0 0 0
0.6440 -0.0027 0.0102 30 0 0 0
0.6280 -0.0023 0.0098 30 0 0 0
0.6180 -0.0023 0.0101 30 0 0 0
0.6180 -0.0023 0.0101 30 0 0 0
0.6300 -0.0027 0.0103 30 0 0 0
0.6340 -0.0029 0.0101 30 0 0 0
0.6340 -0.0030 0.0087 30 0 0 0
0.6500 -0.0030 0.0087 30 0 0 0
0.6640 -0.0040 0.0083 30 0 0 0
0.6340 -0.0044 0.0087 30 0 0 0
0.6480 -0.0046 0.0084 30 0 0 0
0.6320 -0.0048 0.0066 30 0 0 0
0.6540 -0.0050 0.0063 30 0 0 0
0.6200 -0.0053 0.0062 30 0 0 0
0.6420 -0.0049 0.0061 30 0 0 0
0.6440 -0.0052 0.0050 30 0 0 0
0.6440 -0.0052 0.0050 30 0 0 0
0.6280 -0.0042 0.0049 0 0 0 0
0.6260 -0.0038 0.0022 0 -30 0 0
0.6300 -0.0036 0.0014 0 -30 0 0
0.6420 -0.0039 0.0019 0 -30 0 0
0.6420 -0.0042 0.0018 0 -30 0 0
0.6380 -0.0040 0.0022 0 -30 0 0
0.6180 -0.0036 0.0005 0 -30 0 0
0.6160 -0.0032 -0.0024 0 -30 0 0
0.6320 -0.0029 -0.0012 0 -30 0 0
0.6320 -0.0029 -0.0012 0 -30 0 0
0.6200 -0.0028 -0.0008 0 -30 0 0
0.6320 -0.0034 0.0006 0 -30 0 0
0.6520 -0.0038 0.0015 0 -30 0 0
0.6320 -0.0035 0.0043 0 -30 0 0
0.6280 -0.0029 0.0048 0 -30 0 0
0.6360 -0.0023 0.0067 0 -30 0 0
0.6360 -0.0023 0.0067 0 -30 0 0
0.6360 -0.0027 0.0091 0 -30 0 0
0.6220 -0.0033 0.0090 0 -30 0 0
0.6300 -0.0035 0.0089 0 -30 0 0
0.6300 -0.0035 0.0089 0 -30 0 0
0.6180 -0.0034 0.0086 0 -30 0 0
0.6220 -0.0034 0.0090 0 -30 0 0
0.6260 -0.0034 0.0086 0 -30 0 0
0.6400 -0.0034 0.0090 0 -30 0 0
0.6420 -0.0034 0.0098 30 -30 0 0
0.6220 -0.0028 0.0102 30 -30 0 0
0.6620 -0.0021 0.0100 30 -30 0 0
0.6160 -0.0015 0.0101 30 -30 0 0
0.6460 -0.0016 0.0107 30 -30 0 0
0.6340 -0.0021 0.0111 30 -30 0 0
0.6380 -0.0025 0.0106 30 -30 0 0
0.6380 -0.0030 0.0106 30 -30 0 0
0.6420 -0.0030 0.0106 30 -30 0 0
0.6520 -0.0031 0.0109 30 -30 0 0
0.6300 -0.0030 0.0110 30 -30 0 0
0.6300 -0.0024 0.0109 30 -30 0 0
0.6300 -0.0024 0.0109 30 -30 0 0
0.6380 -0.0027 0.0124 30 -30 0 0
0.6380 -0.0027 0.0124 30 -30 0 0
0.6360 -0.0027 0.0122 30 -30 0 0
0.6460 -0.0030 0.0124 30 -30 0 0
0.6460 -0.0030 0.0127 30 -30 0 0
0.6480 -0.0029 0.0127 30 -30 0 0
0.6480 -0.0029 0.0127 30 -30 0 0
0.6320 -0.0029 0.0123 30 -30 0 0
0.6380 -0.0025 0.0120 30 -30 0 0
0.6580 -0.0026 0.0125 30 -30 0 0
0.6280 -0.0028 0.0125 30 -30 0 0
0.6420 -0.0026 0.0123 30 -30 0 0
0.6420 -0.0026 0.0123 30 -30 0 0
0.6340 -0.0025 0.0109 30 -30 0 0
0.6360 -0.0027 0.0096 30 -30 0 0
0.6460 -0.0027 0.0093 30 -30 0 0
0.6500 -0.0030 0.0089 30 0 0 0
0.6640 -0.0035 0.0087 30 0 0 0
0.6760 -0.0034 0.0088 30 0 0 0
0.6400 -0.0042 0.0088 30 0 0 0
0.6420 -0.0044 0.0082 30 0 0 0
0.6420 -0.0044 0.0082 0 0 0 0
0.6360 -0.0038 0.0060 0 -30 0 0
0.6280 -0.0048 0.0051 0 -30 0 0
0.6520 -0.0044 0.0054 0 -30 0 0
0.6340 -0.0037 0.0057 0 -30 0 0
0.6500 -0.0038 0.0060 0 -30 0 0
0.6400 -0.0048 0.0060 0 -30 0 0
0.6720 -0.0047 0.0067 0 -30 0 0
0.6720 -0.0047 0.0067 0 -30 0 0
0.6340 -0.0042 0.0068 0 -30 0 0
0.6480 -0.0042 0.0062 0 -30 0 0
0.6460 -0.0040 0.0065 0 -30 0 0
0.6440 -0.0039 0.0059 0 0 0 0
0.6540 -0.0038 0.0055 0 -30 0 0
0.6520 -0.0031 0.0048 0 -30 0 0
0.6600 -0.0031 0.0048 0 -30 0 0
0.6500 -0.0032 0.0053 0 -30 0 0
0.6740 -0.0032 0.0050 0 -30 0 0
0.6660 -0.0038 0.0051 0 -30 0 0
0.6660 -0.0040 0.0053 0 -30 0 0
0.6660 -0.0040 0.0053 0 0 0 0
0.6580 -0.0035 0.0024 30 0 0 0
0.6700 -0.0044 0.0016 30 0 0 0
0.6560 -0.0046 0.0020 30 0 0 0
0.6660 -0.0046 0.0020 30 0 0 0
0.6480 -0.0044 0.0023 30 0 0 0
0.6480 -0.0044 0.0023 30 0 0 0
0.6680 -0.0038 0.0044 0 0 0 0
0.6680 -0.0030 0.0042 30 0 0 0
0.6400 -0.0019 0.0029 30 0 0 0
0.6600 -0.0022 0.0031 30 0 0 0
0.6600 -0.0022 0.0031 30 0 0 0
0.6620 -0.0027 0.0026 30 0 0 0
0.6620 -0.0027 0.0026 30 0 0 0
0.6600 -0.0030 0.0021 0 0 0 0
0.6540 -0.0026 0.0041 30 0 0 0
0.6540 -0.0025 0.0015 30 0 0 0
0.6540 -0.0025 0.0015 30 0 0 0
0.6460 -0.0020 0.0007 30 0 0 0
0.6700 -0.0022 -0.0004 0 0 0 0
0.6540 -0.0021 -0.0026 30 0 0 0
0.6380 -0.0015 0.0049 30 0 0 0
0.6300 -0.0015 0.0050 30 0 0 0
0.6460 -0.0018 0.0058 0 0 0 0
0.6460 -0.0042 0.0055 30 0 0 0
0.6460 -0.0039 0.0070 30 0 0 0
0.6460 -0.0038 0.0098 30 0 0 0
0.6460 -0.0038 0.0098 0 0 0 0
0.6260 -0.0039 0.0024 0 -30 0 0
0.6600 -0.0024 -0.0007 0 -30 0 0
0.6380 -0.0033 0.0002 0 -30 0 0
0.6380 -0.0033 0.0002 0 -30 0 0
0.6400 -0.0036 0.0000 0 -30 0 0
0.6320 -0.0036 0.0004 0 0 0 0
0.6420 -0.0039 -0.0038 0 -30 0 0
0.6340 -0.0036 -0.0069 0 -30 0 0
0.6360 -0.0035 -0.0064 0 -30 0 0
0.6360 -0.0034 -0.0080 0 -30 0 0
0.6280 -0.0029 -0.0073 0 -30 0 0
0.6280 -0.0029 -0.0073 0 0 0 0
0.6400 -0.0040 -0.0059 0 -30 0 0
0.6320 -0.0048 -0.0059 0 -30 0 0
0.6300 -0.0056 -0.0067 0 -30 0 0
0.6180 -0.0057 -0.0066 0 -30 0 0
0.6220 -0.0057 -0.0074 0 -30 0 0
0.6220 -0.0057 -0.0074 0 0 0 0
0.6660 -0.0025 -0.0003 0 0 0 30
0.6580 -0.0033 -0.0004 0 0 0 30
0.6340 -0.0027 0.0035 0 0 0 0
0.6500 -0.0025 0.0146 0 0 -30 0
0.6400 -0.0036 0.0185 0 0 -30 0
0.6300 -0.0044 0.0158 0 0 -30 0
0.6400 -0.0044 0.0121 0 0 0 0
0.6600 -0.0023 0.0053 0 0 30 0
0.6520 -0.0012 0.0049 0 0 30 0
0.6420 -0.0008 0.0095 0 0 30 0
0.6580 -0.0006 0.0106 0 0 0 0
0.6520 -0.0004 0.0123 0 0 30 0
0.6480 -0.0000 0.0142 0 0 0 0
0.6280 -0.0083 0.0161 0 0 -30 0
0.6600 -0.0098 0.0104 0 0 -30 0
0.6520 -0.0104 0.0076 0 0 -30 0
0.6520 -0.0104 0.0076 0 0 0 0
0.6360 -0.0104 0.0145 0 0 30 0
0.6500 -0.0090 0.0145 0 0 0 0
0.6560 -0.0111 0.0150 0 30 0 0
0.6500 -0.0128 0.0162 0 0 0 0
0.6420 -0.0133 0.0130 0 30 0 0
0.6460 -0.0141 0.0110 0 30 0 0
0.6640 -0.0135 0.0101 0 30 0 0
0.6640 -0.0135 0.0101 0 30 0 0
0.6440 -0.0142 0.0092 0 0 0 0
