0.6180 -0.0063 -0.1521 0 0 0 10
0.5940 -0.0054 -0.1577 0 0 0 10
0.5880 -0.0047 -0.1587 0 0 0 10
0.5920 -0.0047 -0.1586 0 0 0 10
0.5920 -0.0048 -0.1607 0 0 0 10
0.5860 -0.0048 -0.1608 0 0 0 10
0.5880 -0.0045 -0.1608 0 0 0 10
0.5880 -0.0045 -0.1608 0 0 0 10
0.5920 -0.0046 -0.1603 0 0 0 10
0.5780 -0.0042 -0.1589 0 0 0 10
0.5800 -0.0046 -0.1578 0 0 0 10
0.5960 -0.0056 -0.1552 0 0 0 10
0.6160 -0.0056 -0.1536 0 0 0 10
0.6160 -0.0056 -0.1536 0 0 0 10
0.6300 -0.0053 -0.1509 0 0 0 10
0.6300 -0.0049 -0.1479 0 0 0 10
0.6220 -0.0044 -0.1451 0 0 0 10
0.6300 -0.0042 -0.1436 0 0 0 10
0.6120 -0.0046 -0.1412 0 0 0 10
0.6120 -0.0046 -0.1412 0 0 0 10
0.6380 -0.0046 -0.1398 0 0 0 10
0.6280 -0.0049 -0.1377 0 0 0 10
0.5940 -0.0047 -0.1357 0 0 0 10
0.6180 -0.0047 -0.1333 0 0 0 10
0.6180 -0.0047 -0.1333 0 0 0 10
0.6160 -0.0042 -0.1258 0 0 0 10
0.6180 -0.0036 -0.1220 0 0 0 10
0.6180 -0.0036 -0.1220 0 0 0 10
0.6360 -0.0033 -0.1193 0 0 0 10
0.6100 -0.0027 -0.1156 0 0 0 10
0.6320 -0.0027 -0.1150 0 0 0 10
0.6320 -0.0029 -0.1120 0 0 0 10
0.6180 -0.0029 -0.1124 0 0 0 10
0.6360 -0.0029 -0.1124 0 0 0 10
0.6360 -0.0021 -0.1096 0 0 0 10
0.6100 -0.0018 -0.1071 0 0 0 10
0.6500 -0.0017 -0.1051 0 0 0 10
0.6500 -0.0017 -0.1051 0 0 0 10
0.6500 -0.0019 -0.1031 0 0 0 10
0.6480 -0.0023 -0.1002 0 0 0 10
0.6520 -0.0028 -0.0976 0 0 0 10
0.6600 -0.0030 -0.0946 0 0 0 10
0.6460 -0.0026 -0.0934 0 0 0 10
0.6400 -0.0022 -0.0911 0 0 0 10
0.6400 -0.0022 -0.0911 0 0 0 10
0.6480 -0.0011 -0.0860 0 0 0 10
0.6380 -0.0014 -0.0828 0 0 0 10
0.6480 -0.0014 -0.0806 0 0 0 10
0.6520 -0.0018 -0.0764 0 0 0 10
0.6220 -0.0020 -0.0745 0 0 0 10
0.6220 -0.0018 -0.0722 0 0 0 10
0.6540 -0.0018 -0.0722 0 0 0 10
0.6480 -0.0015 -0.0679 0 0 0 10
0.6420 -0.0010 -0.0653 0 0 0 10
0.6600 -0.0005 -0.0622 0 0 0 10
0.6600 -0.0007 -0.0585 0 0 0 10
0.6600 -0.0007 -0.0585 0 0 0 10
0.6680 -0.0009 -0.0547 0 0 0 10
0.6760 -0.0010 -0.0520 0 0 0 10
0.6460 -0.0010 -0.0469 0 0 0 10
0.6540 -0.0011 -0.0453 0 0 0 10
0.6500 -0.0015 -0.0437 0 0 0 10
0.6500 -0.0015 -0.0437 0 0 0 10
0.6520 -0.0016 -0.0386 0 0 0 10
0.6560 -0.0016 -0.0386 0 0 0 10
0.6700 -0.0014 -0.0399 0 0 0 10
0.6580 -0.0014 -0.0386 0 0 0 10
0.6700 -0.0016 -0.0367 0 0 0 10
0.6680 -0.0014 -0.0347 0 0 0 10
0.6680 -0.0014 -0.0347 0 0 0 10
0.6640 -0.0016 -0.0318 0 0 0 10
0.6680 -0.0018 -0.0313 0 0 0 10
0.6760 -0.0019 -0.0295 0 0 0 10
0.6740 -0.0019 -0.0291 0 0 0 10
0.6840 -0.0017 -0.0285 0 0 0 10
0.6560 -0.0014 -0.0264 0 0 0 10
0.6560 -0.0014 -0.0264 0 0 0 10
0.6740 -0.0016 -0.0235 0 0 0 10
0.6860 -0.0018 -0.0211 0 0 0 10
0.6580 -0.0021 -0.0136 0 0 0 10
0.6600 -0.0021 -0.0107 0 0 0 10
0.6820 -0.0021 -0.0109 0 0 0 10
0.6820 -0.0021 -0.0109 0 0 0 10
0.6780 -0.0023 -0.0094 0 0 0 10
0.6740 -0.0026 -0.0041 0 0 0 10
0.6740 -0.0026 -0.0013 0 0 0 10
0.6700 -0.0024 0.0007 0 0 0 10
0.6700 -0.0024 0.0007 0 0 0 10
0.6740 -0.0017 0.0070 0 0 0 10
0.6760 -0.0018 0.0079 0 0 0 10
0.6680 -0.0017 0.0107 0 0 0 10
0.6760 -0.0014 0.0137 0 0 0 10
0.6760 -0.0014 0.0137 0 0 0 10
0.6780 -0.0011 0.0166 0 0 0 10
0.6780 -0.0011 0.0166 0 0 0 10
0.6700 -0.0013 0.0182 0 0 0 10
0.6980 -0.0016 0.0205 0 0 0 10
0.6860 -0.0017 0.0218 0 0 0 10
0.6860 -0.0017 0.0218 0 0 0 10
0.6680 -0.0022 0.0239 0 0 0 10
0.6920 -0.0016 0.0262 0 0 0 10
0.6700 -0.0013 0.0281 0 0 0 10
0.6720 -0.0004 0.0299 0 0 0 10
0.6720 -0.0004 0.0299 0 0 0 10
0.6720 -0.0006 0.0325 0 0 0 10
0.6820 -0.0020 0.0352 0 0 0 10
0.6800 -0.0029 0.0351 0 0 0 10
0.6740 -0.0029 0.0374 0 0 0 10
0.6740 -0.0029 0.0374 0 0 0 0
0.6900 -0.0023 0.0518 0 0 0 10
0.6940 -0.0037 0.0513 0 0 0 10
0.7020 -0.0040 0.0518 0 0 0 0
0.6820 -0.0028 0.0555 0 0 0 10
0.6740 -0.0028 0.0666 0 0 0 10
0.6860 -0.0024 0.0676 0 0 0 10
0.6780 -0.0023 0.0671 0 0 0 0
0.7080 -0.0027 0.0675 0 0 0 -10
0.6780 -0.0024 0.0680 0 0 0 -10
0.6760 -0.0023 0.0660 0 0 0 -10
0.6920 -0.0022 0.0661 0 0 0 0
0.6920 -0.0023 0.0667 0 0 0 -10
0.6740 -0.0021 0.0682 0 0 0 -10
0.6960 -0.0021 0.0712 0 0 0 0
0.6860 -0.0027 0.0719 0 0 0 -10
0.6920 -0.0034 0.0732 0 0 0 -10
0.6660 -0.0039 0.0742 0 0 0 0
0.6860 -0.0039 0.0744 0 0 0 -10
0.6940 -0.0040 0.0811 0 0 0 -10
0.6660 -0.0035 0.0805 0 0 0 0
0.6660 -0.0033 0.0797 0 0 0 -10
0.6720 -0.0046 0.0767 0 0 0 -10
0.6720 -0.0046 0.0767 0 0 0 0
0.6660 -0.0046 0.0820 0 0 0 -10
0.6760 -0.0035 0.0805 0 0 0 -10
0.6860 -0.0036 0.0791 0 0 0 -10
0.6960 -0.0036 0.0765 0 0 0 0
0.6900 -0.0022 0.0744 0 0 0 -10
0.6640 -0.0033 0.0675 0 0 0 -10
0.6980 -0.0032 0.0659 0 0 0 -10
0.6740 -0.0033 0.0652 0 0 0 0
0.6840 -0.0027 0.0625 0 0 0 -10
0.7080 -0.0026 0.0572 0 0 0 -10
0.6860 -0.0033 0.0543 0 0 0 -10
0.7040 -0.0031 0.0553 0 0 0 0
0.6680 -0.0033 0.0556 0 0 0 -10
0.7080 -0.0035 0.0479 0 0 0 -10
0.6800 -0.0042 0.0485 0 0 0 -10
0.6640 -0.0041 0.0472 0 0 0 0
0.6620 -0.0043 0.0440 0 0 0 -10
0.7100 -0.0034 0.0408 0 0 0 -10
0.7100 -0.0034 0.0408 0 0 0 -10
0.6920 -0.0030 0.0423 0 0 0 0
0.6940 -0.0038 0.0366 0 0 0 -10
0.6940 -0.0033 0.0318 0 0 0 -10
0.6940 -0.0033 0.0318 0 0 0 -10
0.6740 -0.0035 0.0314 0 0 0 0
0.6740 -0.0022 0.0243 0 0 0 -10
0.6920 -0.0014 0.0208 0 0 0 -10
0.6920 -0.0014 0.0208 0 0 0 -10
0.6820 -0.0023 0.0220 0 0 0 0
0.6820 -0.0045 0.0164 0 0 0 -10
0.6940 -0.0023 0.0081 0 0 0 -10
0.6960 -0.0030 0.0096 0 0 0 0
