0.5320 -0.0088 -0.3267 0 0 0 10
0.5300 -0.0093 -0.3331 0 0 0 10
0.5300 -0.0093 -0.3352 0 0 0 10
0.5520 -0.0087 -0.3367 0 0 0 10
0.5260 -0.0087 -0.3371 0 0 0 10
0.5280 -0.0091 -0.3370 0 0 0 10
0.5520 -0.0095 -0.3360 0 0 0 10
0.5320 -0.0095 -0.3359 0 0 0 10
0.5400 -0.0092 -0.3352 0 0 0 10
0.5400 -0.0092 -0.3352 0 0 0 10
0.5260 -0.0086 -0.3341 0 0 0 10
0.5220 -0.0082 -0.3317 0 0 0 10
0.5200 -0.0079 -0.3304 0 0 0 10
0.5160 -0.0075 -0.3277 0 0 0 10
0.5300 -0.0079 -0.3247 0 0 0 10
0.5300 -0.0079 -0.3247 0 0 0 10
0.5200 -0.0081 -0.3235 0 0 0 10
0.5120 -0.0082 -0.3223 0 0 0 10
0.5280 -0.0079 -0.3189 0 0 0 10
0.5280 -0.0075 -0.3166 0 0 0 10
0.5280 -0.0075 -0.3166 0 0 0 10
0.5180 -0.0058 -0.3107 0 0 0 10
0.5180 -0.0058 -0.3107 0 0 0 10
0.5380 -0.0057 -0.3088 0 0 0 10
0.5400 -0.0063 -0.3071 0 0 0 10
0.5160 -0.0074 -0.3050 0 0 0 10
0.5160 -0.0074 -0.3050 0 0 0 10
0.5260 -0.0064 -0.2992 0 0 0 10
0.5460 -0.0058 -0.2976 0 0 0 10
0.5460 -0.0058 -0.2976 0 0 0 10
0.5220 -0.0052 -0.2947 0 0 0 10
0.5360 -0.0053 -0.2933 0 0 0 10
0.5340 -0.0056 -0.2910 0 0 0 10
0.5340 -0.0056 -0.2910 0 0 0 10
0.5440 -0.0056 -0.2858 0 0 0 10
0.5500 -0.0051 -0.2832 0 0 0 10
0.5500 -0.0051 -0.2832 0 0 0 10
0.5300 -0.0044 -0.2811 0 0 0 10
0.5320 -0.0047 -0.2781 0 0 0 10
0.5320 -0.0047 -0.2781 0 0 0 10
0.5340 -0.0055 -0.2733 0 0 0 10
0.5440 -0.0051 -0.2711 0 0 0 10
0.5440 -0.0051 -0.2711 0 0 0 10
0.5560 -0.0042 -0.2691 0 0 0 10
0.5480 -0.0044 -0.2681 0 0 0 10
0.5420 -0.0045 -0.2663 0 0 0 10
0.5300 -0.0049 -0.2620 0 0 0 10
0.5360 -0.0037 -0.2586 0 0 0 10
0.5360 -0.0037 -0.2586 0 0 0 10
0.5380 -0.0028 -0.2567 0 0 0 10
0.5520 -0.0023 -0.2555 0 0 0 10
0.5640 -0.0025 -0.2541 0 0 0 10
0.5700 -0.0028 -0.2515 0 0 0 10
0.5280 -0.0028 -0.2504 0 0 0 10
0.5460 -0.0027 -0.2481 0 0 0 10
0.5460 -0.0027 -0.2481 0 0 0 10
0.5380 -0.0027 -0.2452 0 0 0 10
0.5340 -0.0028 -0.2434 0 0 0 10
0.5560 -0.0028 -0.2411 0 0 0 10
0.5560 -0.0028 -0.2411 0 0 0 10
0.5560 -0.0028 -0.2376 0 0 0 10
0.5440 -0.0025 -0.2352 0 0 0 10
0.5640 -0.0018 -0.2325 0 0 0 10
0.5640 -0.0018 -0.2325 0 0 0 10
0.5600 -0.0005 -0.2296 0 0 0 10
0.5600 -0.0005 -0.2296 0 0 0 10
0.5300 -0.0005 -0.2296 0 0 0 10
0.5540 -0.0007 -0.2267 0 0 0 10
0.5400 -0.0007 -0.2234 0 0 0 10
0.5420 -0.0008 -0.2206 0 0 0 10
0.5640 0.0004 -0.2142 0 0 0 10
0.5600 0.0004 -0.2142 0 0 0 10
0.5660 0.0002 -0.2118 0 0 0 10
0.5520 -0.0005 -0.2107 0 0 0 10
0.5480 -0.0009 -0.2093 0 0 0 10
0.5480 -0.0009 -0.2093 0 0 0 10
0.5820 -0.0009 -0.2059 0 0 0 10
0.5680 -0.0004 -0.2033 0 0 0 10
0.5300 0.0001 -0.1999 0 0 0 10
0.5800 0.0005 -0.1967 0 0 0 10
0.5800 0.0005 -0.1967 0 0 0 10
0.5580 0.0012 -0.1906 0 0 0 10
0.5580 0.0012 -0.1906 0 0 0 10
0.5720 0.0009 -0.1893 0 0 0 10
0.5660 0.0005 -0.1879 0 0 0 10
0.5580 0.0002 -0.1851 0 0 0 10
0.5580 0.0002 -0.1851 0 0 0 10
0.5620 0.0006 -0.1815 0 0 0 10
0.5720 0.0009 -0.1784 0 0 0 10
0.5920 0.0007 -0.1756 0 0 0 10
0.5740 0.0005 -0.1719 0 0 0 10
0.5700 0.0002 -0.1704 0 0 0 10
0.5640 -0.0000 -0.1693 0 0 0 10
0.5880 -0.0002 -0.1671 0 0 0 10
0.5800 0.0004 -0.1649 0 0 0 10
0.5900 0.0007 -0.1639 0 0 0 10
0.5900 0.0007 -0.1639 0 0 0 10
0.6100 0.0006 -0.1615 0 0 0 0
0.5980 0.0009 -0.1513 0 0 0 10
0.6060 -0.0007 -0.1459 0 0 0 10
0.6020 0.0002 -0.1464 0 0 0 10
0.6080 -0.0001 -0.1440 0 0 0 0
0.6020 -0.0005 -0.1412 0 0 0 10
0.6220 0.0003 -0.1377 0 0 0 10
0.6100 -0.0005 -0.1366 0 0 0 0
0.6040 -0.0012 -0.1383 0 0 0 10
0.6120 -0.0007 -0.1347 0 0 0 0
0.5960 -0.0017 -0.1324 0 0 0 10
0.6340 -0.0026 -0.1317 0 0 0 10
0.6180 -0.0020 -0.1298 0 0 0 10
0.6260 -0.0016 -0.1288 0 0 0 10
0.6200 -0.0021 -0.1277 0 0 0 10
0.6200 -0.0033 -0.1266 0 0 0 10
0.6100 -0.0033 -0.1266 0 0 0 10
0.6040 -0.0033 -0.1249 0 0 0 10
0.6100 -0.0030 -0.1241 0 0 0 10
0.6140 -0.0023 -0.1226 0 0 0 10
0.6060 -0.0016 -0.1198 0 0 0 10
0.6220 -0.0012 -0.1166 0 0 0 10
0.6220 -0.0012 -0.1166 0 0 0 10
0.6060 -0.0016 -0.1139 0 0 0 10
0.6500 -0.0020 -0.1104 0 0 0 10
0.6300 -0.0018 -0.1077 0 0 0 10
0.6200 -0.0017 -0.1064 0 0 0 10
0.6200 -0.0019 -0.1052 0 0 0 10
0.6300 -0.0019 -0.1052 0 0 0 10
0.6340 -0.0018 -0.1043 0 0 0 10
0.6220 -0.0022 -0.1021 0 0 0 10
0.6200 -0.0025 -0.0995 0 0 0 10
0.6200 -0.0025 -0.0995 0 0 0 10
0.6340 -0.0024 -0.0972 0 0 0 10
0.6300 -0.0027 -0.0959 0 0 0 10
0.6260 -0.0024 -0.0930 0 0 0 10
0.6660 -0.0021 -0.0906 0 0 0 10
0.6300 -0.0020 -0.0895 0 0 0 10
0.6380 -0.0021 -0.0880 0 0 0 10
0.6560 -0.0021 -0.0835 0 0 0 10
0.6560 -0.0021 -0.0835 0 0 0 10
0.6400 -0.0021 -0.0808 0 0 0 0
0.6440 -0.0012 -0.0765 0 0 0 10
0.6140 -0.0014 -0.0699 0 0 0 10
0.6340 -0.0017 -0.0717 0 0 0 10
0.6280 -0.0015 -0.0702 0 0 0 10
0.6240 -0.0010 -0.0693 0 0 0 10
0.6400 -0.0004 -0.0690 0 0 0 0
0.6340 -0.0019 -0.0653 0 0 0 10
0.6300 -0.0024 -0.0634 0 0 0 10
0.6140 -0.0020 -0.0620 0 0 0 10
0.6320 -0.0014 -0.0602 0 0 0 10
0.6080 -0.0008 -0.0623 0 0 0 10
0.6300 -0.0007 -0.0621 0 0 0 0
0.6180 -0.0011 -0.0540 0 0 0 10
0.6260 -0.0010 -0.0551 0 0 0 10
0.6260 -0.0010 -0.0551 0 0 0 10
0.6260 -0.0010 -0.0551 0 0 0 10
0.6220 -0.0011 -0.0539 0 0 0 10
0.6260 -0.0010 -0.0538 0 0 0 10
0.6360 -0.0007 -0.0567 0 0 0 10
0.6360 -0.0007 -0.0567 0 0 0 10
0.6480 0.0001 -0.0540 0 0 0 10
0.6380 -0.0000 -0.0527 0 0 0 10
0.6380 -0.0000 -0.0527 0 0 0 10
0.6500 0.0001 -0.0496 0 0 0 10
0.6340 0.0005 -0.0491 0 0 0 10
0.6300 0.0010 -0.0465 0 0 0 0
0.6360 0.0000 -0.0381 0 0 0 10
0.6380 0.0009 -0.0322 0 0 0 10
0.6600 -0.0005 -0.0315 0 0 0 10
0.6460 -0.0012 -0.0303 0 0 0 10
0.6540 -0.0007 -0.0316 0 0 0 10
0.6540 -0.0007 -0.0316 0 0 0 0
0.6460 -0.0022 -0.0250 0 0 0 10
0.6760 -0.0029 -0.0224 0 0 0 10
0.6660 -0.0016 -0.0221 0 0 0 10
0.6580 -0.0015 -0.0215 0 0 0 0
0.6680 -0.0023 -0.0223 0 0 0 10
0.6340 -0.0025 -0.0212 0 0 0 10
0.6400 -0.0027 -0.0191 0 0 0 0
0.6520 -0.0042 -0.0061 0 0 0 10
0.6760 -0.0049 -0.0076 0 0 0 10
0.6900 -0.0044 -0.0076 0 0 0 0
0.6660 -0.0034 -0.0105 0 0 0 10
0.6620 -0.0044 -0.0094 0 0 0 10
0.6540 -0.0043 -0.0097 0 0 0 0
0.6540 -0.0032 -0.0051 0 0 0 10
0.6820 -0.0047 0.0019 0 0 0 10
0.6740 -0.0042 0.0015 0 0 0 10
0.6740 -0.0042 0.0015 0 0 0 0
0.7040 -0.0045 0.0221 0 0 0 -10
0.7180 -0.0031 0.0241 0 0 0 0
0.6780 -0.0047 0.0267 0 0 0 -10
0.6600 -0.0047 0.0287 0 0 0 -10
0.6600 -0.0047 0.0287 0 0 0 0
0.6740 -0.0038 0.0250 0 0 0 -10
0.6640 -0.0035 0.0191 0 0 0 0
0.6780 -0.0044 0.0117 0 0 0 -10
0.6740 -0.0055 0.0160 0 0 0 -10
0.6780 -0.0049 0.0208 0 0 0 0
0.6980 -0.0047 0.0174 0 0 0 -10
0.6780 -0.0049 0.0052 0 0 0 0
0.6960 -0.0035 0.0077 0 0 0 -10
0.6860 -0.0030 0.0094 0 0 0 -10
0.6900 -0.0021 0.0114 0 0 0 0
0.6920 -0.0062 0.0013 0 0 0 -10
0.7020 -0.0053 -0.0070 0 0 0 -10
0.6780 -0.0050 -0.0034 0 0 0 0
0.6840 -0.0022 0.0076 0 0 -10 0
0.6660 -0.0040 0.0135 0 0 -10 0
0.6720 -0.0044 0.0078 0 0 0 0
0.6780 -0.0036 -0.0031 0 0 -10 0
0.6800 -0.0033 0.0060 0 0 -10 0
0.6820 -0.0030 0.0010 0 0 0 0
0.6800 -0.0025 0.0057 0 0 -10 0
0.6940 -0.0015 0.0048 0 0 0 0
0.6720 -0.0021 0.0064 0 0 -10 0
0.6880 -0.0011 0.0060 0 0 0 0
0.6860 0.0002 0.0141 0 0 -10 0
0.6760 -0.0006 0.0096 0 0 0 0
0.6780 0.0000 -0.0019 0 0 -10 0
0.6740 0.0007 -0.0104 0 0 0 0
0.6980 -0.0007 -0.0058 0 0 -10 0
0.6760 -0.0003 -0.0077 0 0 -10 0
