0.5680 0.3074 0.0370 0 0 10 0
0.5600 0.3069 0.0367 0 0 10 0
0.5600 0.3065 0.0384 0 0 10 0
0.5600 0.3065 0.0384 0 0 10 0
0.5540 0.3067 0.0401 0 0 10 0
0.5520 0.3072 0.0390 0 0 10 0
0.5680 0.3077 0.0405 0 0 10 0
0.5680 0.3077 0.0405 0 0 10 0
0.5600 0.3074 0.0400 0 0 10 0
0.5480 0.3070 0.0404 0 0 10 0
0.5540 0.3066 0.0397 0 0 10 0
0.5460 0.3062 0.0388 0 0 10 0
0.5500 0.3057 0.0381 0 0 10 0
0.5580 0.3053 0.0369 0 0 10 0
0.5660 0.3053 0.0359 0 0 10 0
0.5740 0.3053 0.0385 0 0 10 0
0.5640 0.3056 0.0393 0 0 10 0
0.5400 0.3058 0.0414 0 0 10 0
0.5540 0.3051 0.0439 0 0 10 0
0.5380 0.3042 0.0465 0 0 10 0
0.5460 0.3031 0.0471 0 0 10 0
0.5460 0.3031 0.0471 0 0 10 0
0.5420 0.3026 0.0520 0 0 10 0
0.5420 0.3026 0.0520 0 0 10 0
0.5440 0.3026 0.0538 0 0 10 0
0.5140 0.3025 0.0542 0 0 10 0
0.5380 0.3025 0.0576 0 0 10 0
0.5220 0.3022 0.0688 0 0 10 0
0.5360 0.3015 0.0639 0 0 10 0
0.5200 0.3004 0.0632 0 0 10 0
0.5200 0.3004 0.0632 0 0 10 0
0.5420 0.2992 0.0615 0 0 10 0
0.5500 0.2987 0.0606 0 0 10 0
0.5140 0.2989 0.0598 0 0 10 0
0.5340 0.2985 0.0582 0 0 10 0
0.5340 0.2985 0.0598 0 0 10 0
0.5320 0.2984 0.0589 0 0 10 0
0.5320 0.2984 0.0589 0 0 10 0
0.5360 0.2981 0.0580 0 0 10 0
0.5360 0.2966 0.0573 0 0 10 0
0.5380 0.2955 0.0560 0 0 10 0
0.5380 0.2948 0.0555 0 0 10 0
0.5380 0.2948 0.0550 0 0 10 0
0.5380 0.2948 0.0550 0 0 10 0
0.5300 0.2944 0.0585 0 0 10 0
0.5260 0.2942 0.0576 0 0 10 0
0.5280 0.2938 0.0611 0 0 10 0
0.5400 0.2927 0.0594 0 0 10 0
0.5400 0.2922 0.0621 0 0 10 0
0.5360 0.2918 0.0608 0 0 10 0
0.5360 0.2918 0.0608 0 0 10 0
0.5240 0.2911 0.0595 0 0 10 0
0.5340 0.2908 0.0596 0 0 10 0
0.5400 0.2908 0.0585 0 0 10 0
0.5320 0.2907 0.0564 0 0 10 0
0.5320 0.2907 0.0564 0 0 10 0
0.5540 0.2905 0.0631 0 0 10 0
0.5540 0.2905 0.0631 0 0 10 0
0.5280 0.2901 0.0657 0 0 10 0
0.5180 0.2894 0.0651 0 0 10 0
0.5280 0.2886 0.0690 0 0 10 0
0.5180 0.2874 0.0675 0 0 10 0
0.5180 0.2874 0.0675 0 0 10 0
0.5200 0.2873 0.0670 0 0 10 0
0.5200 0.2873 0.0670 0 0 10 0
0.5300 0.2869 0.0653 0 0 10 0
0.5300 0.2854 0.0629 0 0 10 0
0.5300 0.2854 0.0629 0 0 10 0
0.5480 0.2851 0.0629 0 0 10 0
0.5320 0.2854 0.0618 0 0 10 0
0.5380 0.2850 0.0614 0 0 10 0
0.5380 0.2850 0.0614 0 0 10 0
0.5440 0.2848 0.0605 0 0 10 0
0.5540 0.2842 0.0623 0 0 10 0
0.5540 0.2842 0.0623 0 0 10 0
0.5460 0.2841 0.0609 0 0 10 0
0.5080 0.2834 0.0608 0 0 10 0
0.5080 0.2834 0.0608 0 0 10 0
0.5420 0.2829 0.0616 0 0 10 0
0.5280 0.2825 0.0586 0 0 10 0
0.5300 0.2821 0.0566 0 0 10 0
0.5300 0.2821 0.0566 0 0 10 0
0.5220 0.2820 0.0566 0 0 10 0
0.5220 0.2821 0.0555 0 0 10 0
0.5160 0.2817 0.0556 0 0 10 0
0.5060 0.2815 0.0551 0 0 10 0
0.5060 0.2815 0.0551 0 0 10 0
0.5140 0.2814 0.0568 0 0 10 0
0.5240 0.2809 0.0563 0 0 10 0
0.5280 0.2807 0.0589 0 0 10 0
0.5480 0.2801 0.0580 0 0 10 0
0.5400 0.2789 0.0596 0 0 10 0
0.5400 0.2789 0.0596 0 0 10 0
0.5320 0.2787 0.0596 0 0 10 0
0.5180 0.2786 0.0634 0 0 10 0
0.5280 0.2786 0.0620 0 0 10 0
0.5280 0.2786 0.0620 0 0 10 0
0.5300 0.2790 0.0620 0 0 10 0
0.5220 0.2784 0.0608 0 0 10 0
0.5220 0.2778 0.0599 0 0 10 0
0.5360 0.2773 0.0582 0 0 10 0
0.5240 0.2759 0.0562 0 0 10 0
0.5240 0.2759 0.0562 0 0 10 0
0.5180 0.2757 0.0551 0 0 10 0
0.5600 0.2748 0.0544 0 0 10 0
0.5320 0.2747 0.0520 0 0 10 0
0.5320 0.2743 0.0528 0 0 10 0
0.5200 0.2737 0.0519 0 0 10 0
0.5140 0.2725 0.0531 0 0 10 0
0.5140 0.2725 0.0531 0 0 10 0
0.5160 0.2716 0.0548 0 0 10 0
0.5320 0.2713 0.0567 0 0 10 0
0.5260 0.2712 0.0553 0 0 10 0
0.5400 0.2716 0.0566 0 0 10 0
0.5400 0.2716 0.0566 0 0 10 0
0.5400 0.2719 0.0546 0 0 10 0
0.5280 0.2722 0.0555 0 0 10 0
0.5120 0.2719 0.0547 0 0 10 0
0.5300 0.2710 0.0545 0 0 10 0
0.5240 0.2702 0.0519 0 0 10 0
0.5240 0.2696 0.0538 0 0 10 0
0.5240 0.2696 0.0538 0 0 10 0
0.5140 0.2687 0.0555 0 0 10 0
0.5320 0.2681 0.0547 0 0 10 0
0.5240 0.2678 0.0571 0 0 10 0
0.5260 0.2672 0.0562 0 0 10 0
0.5260 0.2672 0.0562 0 0 10 0
0.5420 0.2667 0.0554 0 0 10 0
0.5260 0.2661 0.0550 0 0 10 0
0.5320 0.2653 0.0569 0 0 10 0
0.5320 0.2645 0.0562 0 0 10 0
0.5380 0.2645 0.0562 0 0 10 0
0.5340 0.2635 0.0554 0 0 10 0
0.5340 0.2630 0.0539 0 0 10 0
0.5480 0.2630 0.0578 0 0 10 0
0.5320 0.2629 0.0572 0 0 10 0
0.5440 0.2622 0.0578 0 0 10 0
0.5440 0.2622 0.0578 0 0 10 0
0.5280 0.2612 0.0552 0 0 10 0
0.5480 0.2605 0.0506 0 0 10 0
0.5360 0.2599 0.0497 0 0 10 0
0.5360 0.2599 0.0497 0 0 10 0
0.5320 0.2594 0.0470 0 0 10 0
0.5500 0.2594 0.0470 0 0 10 0
0.5440 0.2597 0.0457 0 0 10 0
0.5460 0.2595 0.0458 0 0 10 0
0.5600 0.2595 0.0467 0 0 10 0
0.5440 0.2594 0.0476 0 0 10 0
0.5440 0.2594 0.0476 0 0 10 0
0.5400 0.2580 0.0477 0 0 10 0
0.5400 0.2580 0.0477 0 0 10 0
0.5300 0.2572 0.0498 0 0 10 0
0.5440 0.2564 0.0506 0 0 10 0
0.5420 0.2558 0.0495 0 0 10 0
0.5620 0.2555 0.0507 0 0 10 0
0.5400 0.2555 0.0508 0 0 10 0
0.5620 0.2549 0.0523 0 0 10 0
0.5420 0.2544 0.0514 0 0 10 0
0.5420 0.2544 0.0514 0 0 10 0
0.5560 0.2528 0.0480 0 0 10 0
0.5420 0.2527 0.0467 0 0 10 0
0.5420 0.2527 0.0467 0 0 10 0
0.5720 0.2526 0.0460 0 0 10 0
0.5460 0.2527 0.0465 0 0 10 0
0.5480 0.2522 0.0458 0 0 10 0
0.5600 0.2494 0.0463 0 0 10 0
0.5560 0.2485 0.0483 0 0 10 0
0.5560 0.2485 0.0483 0 0 10 0
0.5500 0.2480 0.0473 0 0 10 0
0.5560 0.2481 0.0495 0 0 10 0
0.5600 0.2479 0.0493 0 0 10 0
0.5600 0.2479 0.0493 0 0 10 0
0.5560 0.2475 0.0468 0 0 10 0
0.5560 0.2475 0.0468 0 0 10 0
0.5680 0.2475 0.0490 0 0 10 0
0.5340 0.2468 0.0493 0 0 10 0
0.5340 0.2468 0.0493 0 0 10 0
0.5660 0.2465 0.0481 0 0 10 0
0.5540 0.2467 0.0483 0 0 10 0
0.5620 0.2466 0.0488 0 0 10 0
0.5580 0.2464 0.0511 0 0 10 0
0.5580 0.2464 0.0511 0 0 10 0
0.5700 0.2448 0.0507 0 0 10 0
0.5700 0.2448 0.0507 0 0 10 0
0.5560 0.2433 0.0509 0 0 10 0
0.5640 0.2423 0.0515 0 0 10 0
0.5640 0.2423 0.0515 0 0 10 0
0.5780 0.2428 0.0521 0 0 10 0
0.5660 0.2435 0.0522 0 0 10 0
0.5500 0.2429 0.0506 0 0 10 0
0.5560 0.2426 0.0507 0 0 10 0
0.5560 0.2426 0.0507 0 0 10 0
0.5540 0.2422 0.0485 0 0 10 0
0.5660 0.2417 0.0481 0 0 10 0
0.5820 0.2414 0.0496 0 0 10 0
0.5620 0.2410 0.0489 0 0 10 0
0.5740 0.2402 0.0544 0 0 10 0
0.5740 0.2402 0.0544 0 0 10 0
0.5960 0.2398 0.0532 0 0 10 0
0.5760 0.2399 0.0531 0 0 10 0
0.5680 0.2399 0.0531 0 0 10 0
0.5620 0.2394 0.0540 0 0 10 0
0.5780 0.2386 0.0524 0 0 10 0
0.5720 0.2384 0.0514 0 0 10 0
0.5720 0.2384 0.0514 0 0 10 0
0.5660 0.2380 0.0504 0 0 10 0
0.5600 0.2378 0.0503 0 0 10 0
0.5660 0.2375 0.0491 0 0 10 0
0.5680 0.2367 0.0489 0 0 10 0
0.5680 0.2367 0.0489 0 0 10 0
0.5740 0.2359 0.0503 0 0 10 0
0.5740 0.2359 0.0503 0 0 10 0
0.5640 0.2361 0.0498 0 0 10 0
0.5620 0.2358 0.0511 0 0 10 0
0.5620 0.2353 0.0489 0 0 10 0
0.5520 0.2353 0.0489 0 0 10 0
0.5700 0.2341 0.0490 0 0 10 0
0.5700 0.2341 0.0490 0 0 10 0
0.5600 0.2332 0.0488 0 0 10 0
0.5700 0.2328 0.0467 0 0 10 0
0.5780 0.2326 0.0469 0 0 10 0
0.5780 0.2326 0.0469 0 0 10 0
0.5760 0.2329 0.0471 0 0 10 0
0.5800 0.2330 0.0466 0 0 10 0
0.5920 0.2328 0.0464 0 0 10 0
0.5920 0.2328 0.0464 0 0 10 0
0.5820 0.2318 0.0479 0 0 10 0
0.5780 0.2309 0.0472 0 0 10 0
0.5620 0.2295 0.0506 0 0 10 0
0.5920 0.2289 0.0524 0 0 10 0
0.5700 0.2290 0.0513 0 0 10 0
0.5700 0.2290 0.0513 0 0 10 0
0.5820 0.2284 0.0519 0 0 10 0
0.5920 0.2281 0.0516 0 0 10 0
0.5700 0.2276 0.0517 0 0 10 0
0.5860 0.2272 0.0501 0 0 10 0
0.5620 0.2269 0.0517 0 0 10 0
0.5620 0.2269 0.0517 0 0 10 0
0.5600 0.2265 0.0529 0 0 10 0
0.5620 0.2265 0.0516 0 0 10 0
0.5580 0.2258 0.0491 0 0 10 0
0.5760 0.2255 0.0497 0 0 10 0
0.5760 0.2244 0.0493 0 0 10 0
0.5500 0.2244 0.0493 0 0 10 0
0.5580 0.2235 0.0458 0 0 10 0
0.5580 0.2235 0.0458 0 0 10 0
0.5760 0.2229 0.0455 0 0 10 0
0.5760 0.2231 0.0449 0 0 10 0
0.5760 0.2231 0.0449 0 0 10 0
0.5780 0.2231 0.0454 0 0 10 0
0.5840 0.2228 0.0452 0 0 10 0
0.5700 0.2221 0.0469 0 0 10 0
0.5740 0.2220 0.0463 0 0 10 0
0.5880 0.2210 0.0446 0 0 10 0
0.6080 0.2202 0.0439 0 0 10 0
0.6080 0.2202 0.0439 0 0 10 0
0.5800 0.2192 0.0448 0 0 10 0
0.5960 0.2188 0.0446 0 0 10 0
0.5820 0.2179 0.0446 0 0 10 0
0.5640 0.2175 0.0440 0 0 10 0
0.5660 0.2172 0.0462 0 0 10 0
0.5880 0.2168 0.0448 0 0 10 0
0.5680 0.2162 0.0429 0 0 10 0
0.5680 0.2162 0.0429 0 0 10 0
0.5740 0.2165 0.0419 0 0 10 0
0.5760 0.2168 0.0409 0 0 10 0
0.5720 0.2169 0.0397 0 0 10 0
0.5720 0.2169 0.0397 0 0 10 0
0.5940 0.2154 0.0389 0 0 10 0
0.5920 0.2154 0.0389 0 0 10 0
0.5800 0.2149 0.0393 0 0 10 0
0.5960 0.2143 0.0377 0 0 10 0
0.5880 0.2138 0.0369 0 0 10 0
0.5720 0.2138 0.0387 0 0 10 0
0.5720 0.2138 0.0387 0 0 10 0
0.5840 0.2133 0.0398 0 0 10 0
0.5700 0.2129 0.0387 0 0 10 0
0.5840 0.2126 0.0387 0 0 10 0
0.5620 0.2124 0.0402 0 0 10 0
0.5600 0.2111 0.0388 0 0 10 0
0.5600 0.2111 0.0388 0 0 10 0
0.5800 0.2102 0.0387 0 0 10 0
0.5680 0.2099 0.0383 0 0 10 0
0.5740 0.2095 0.0381 0 0 10 0
0.5820 0.2095 0.0353 0 0 10 0
0.5800 0.2092 0.0356 0 0 10 0
0.5880 0.2090 0.0372 0 0 10 0
0.5880 0.2090 0.0372 0 0 10 0
0.5760 0.2089 0.0371 0 0 10 0
0.5940 0.2088 0.0385 0 0 10 0
0.5920 0.2074 0.0412 0 0 10 0
0.5920 0.2074 0.0412 0 0 10 0
0.5920 0.2069 0.0408 0 0 10 0
0.5660 0.2066 0.0407 0 0 10 0
0.6000 0.2065 0.0408 0 0 10 0
0.5880 0.2060 0.0401 0 0 10 0
0.5820 0.2058 0.0393 0 0 10 0
0.5660 0.2053 0.0432 0 0 10 0
0.5860 0.2053 0.0448 0 0 10 0
0.5740 0.2052 0.0454 0 0 10 0
0.5820 0.2049 0.0439 0 0 10 0
0.5820 0.2049 0.0439 0 0 10 0
0.5820 0.2043 0.0456 0 0 10 0
0.5820 0.2043 0.0456 0 0 10 0
0.5920 0.2036 0.0464 0 0 10 0
0.5660 0.2034 0.0441 0 0 10 0
0.5740 0.2033 0.0435 0 0 10 0
0.5740 0.2030 0.0439 0 0 10 0
0.5740 0.2030 0.0439 0 0 10 0
0.5820 0.2029 0.0432 0 0 10 0
0.5840 0.2025 0.0431 0 0 10 0
0.5660 0.2017 0.0434 0 0 10 0
0.5700 0.2010 0.0460 0 0 10 0
0.5820 0.2006 0.0449 0 0 10 0
0.5660 0.2001 0.0441 0 0 10 0
0.5660 0.2001 0.0441 0 0 10 0
0.5700 0.1999 0.0473 0 0 10 0
0.5820 0.2000 0.0465 0 0 10 0
0.5840 0.2000 0.0482 0 0 10 0
0.5840 0.1994 0.0481 0 0 10 0
0.5740 0.1994 0.0481 0 0 10 0
0.5900 0.1989 0.0480 0 0 10 0
0.5880 0.1983 0.0473 0 0 10 0
0.5860 0.1978 0.0447 0 0 10 0
0.5900 0.1975 0.0466 0 0 10 0
0.5900 0.1975 0.0466 0 0 10 0
0.5880 0.1971 0.0440 0 0 10 0
0.5660 0.1968 0.0431 0 0 10 0
0.5840 0.1958 0.0421 0 0 10 0
0.5840 0.1958 0.0421 0 0 10 0
0.5800 0.1938 0.0417 0 0 10 0
0.5860 0.1937 0.0439 0 0 10 0
0.5860 0.1937 0.0439 0 0 10 0
0.5740 0.1933 0.0466 0 0 10 0
0.5680 0.1933 0.0469 0 0 10 0
0.6020 0.1925 0.0462 0 0 10 0
0.6020 0.1925 0.0462 0 0 10 0
0.5720 0.1920 0.0456 0 0 10 0
0.5780 0.1909 0.0471 0 0 10 0
0.5780 0.1905 0.0491 0 0 10 0
0.5900 0.1903 0.0462 0 0 10 0
0.5660 0.1902 0.0470 0 0 10 0
0.5660 0.1900 0.0465 0 0 10 0
0.5680 0.1900 0.0465 0 0 10 0
0.5780 0.1900 0.0472 0 0 10 0
0.5900 0.1891 0.0467 0 0 10 0
0.5840 0.1886 0.0496 0 0 10 0
0.5840 0.1886 0.0496 0 0 10 0
0.5700 0.1882 0.0479 0 0 10 0
0.5700 0.1882 0.0479 0 0 10 0
0.5460 0.1885 0.0471 0 0 10 0
0.5640 0.1887 0.0463 0 0 10 0
0.5540 0.1887 0.0461 0 0 10 0
0.5540 0.1887 0.0461 0 0 10 0
0.5660 0.1877 0.0446 0 0 10 0
0.5440 0.1862 0.0475 0 0 10 0
0.5700 0.1862 0.0475 0 0 10 0
0.5640 0.1850 0.0461 0 0 10 0
0.5640 0.1850 0.0461 0 0 10 0
0.5860 0.1848 0.0455 0 0 10 0
0.5860 0.1848 0.0455 0 0 10 0
0.5620 0.1848 0.0469 0 0 10 0
0.5680 0.1846 0.0468 0 0 10 0
0.5660 0.1844 0.0485 0 0 10 0
0.5760 0.1842 0.0502 0 0 10 0
0.5760 0.1842 0.0502 0 0 10 0
0.5560 0.1837 0.0503 0 0 10 0
0.5780 0.1826 0.0491 0 0 10 0
0.5780 0.1823 0.0488 0 0 10 0
0.5780 0.1821 0.0493 0 0 10 0
0.5780 0.1821 0.0493 0 0 10 0
0.5720 0.1817 0.0495 0 0 10 0
0.5700 0.1809 0.0497 0 0 10 0
0.5760 0.1804 0.0476 0 0 10 0
0.5760 0.1804 0.0476 0 0 10 0
0.5860 0.1803 0.0471 0 0 10 0
0.5860 0.1803 0.0471 0 0 10 0
0.6140 0.1797 0.0469 0 0 10 0
0.6140 0.1795 0.0458 0 0 10 0
0.5880 0.1790 0.0455 0 0 10 0
0.5880 0.1790 0.0455 0 0 10 0
0.5880 0.1787 0.0446 0 0 10 0
0.6140 0.1784 0.0444 0 0 10 0
0.5920 0.1783 0.0457 0 0 10 0
0.5900 0.1772 0.0457 0 0 10 0
0.5900 0.1772 0.0457 0 0 10 0
0.5800 0.1759 0.0470 0 0 10 0
0.5980 0.1754 0.0473 0 0 10 0
0.6060 0.1751 0.0471 0 0 10 0
0.5880 0.1748 0.0481 0 0 10 0
0.6000 0.1739 0.0461 0 0 10 0
0.6000 0.1739 0.0461 0 0 10 0
0.6140 0.1736 0.0456 0 0 10 0
0.6020 0.1735 0.0455 0 0 10 0
0.5820 0.1727 0.0419 0 0 10 0
0.6040 0.1725 0.0427 0 0 10 0
0.5720 0.1719 0.0422 0 0 10 0
0.5720 0.1719 0.0422 0 0 10 0
0.5780 0.1719 0.0417 0 0 10 0
0.5920 0.1711 0.0399 0 0 10 0
0.6080 0.1712 0.0400 0 0 10 0
0.6020 0.1712 0.0396 0 0 10 0
0.6180 0.1711 0.0406 0 0 10 0
0.6180 0.1711 0.0406 0 0 10 0
0.6120 0.1709 0.0402 0 0 10 0
0.5940 0.1703 0.0383 0 0 10 0
0.5940 0.1702 0.0390 0 0 10 0
0.6060 0.1697 0.0377 0 0 10 0
0.6040 0.1693 0.0373 0 0 10 0
0.6060 0.1686 0.0357 0 0 10 0
0.6200 0.1676 0.0365 0 0 10 0
0.6200 0.1669 0.0362 0 0 10 0
0.5980 0.1669 0.0362 0 0 10 0
0.5960 0.1665 0.0371 0 0 10 0
0.6200 0.1662 0.0349 0 0 10 0
0.5940 0.1659 0.0358 0 0 10 0
0.6240 0.1652 0.0356 0 0 10 0
0.6000 0.1646 0.0342 0 0 10 0
0.6220 0.1645 0.0319 0 0 10 0
0.6220 0.1645 0.0319 0 0 10 0
0.6180 0.1645 0.0338 0 0 10 0
0.6140 0.1642 0.0344 0 0 10 0
0.6280 0.1637 0.0349 0 0 10 0
0.6220 0.1630 0.0367 0 0 10 0
0.6220 0.1623 0.0367 0 0 10 0
0.6000 0.1623 0.0367 0 0 10 0
0.6260 0.1620 0.0338 0 0 10 0
0.6100 0.1620 0.0336 0 0 10 0
0.6200 0.1616 0.0358 0 0 10 0
0.6200 0.1616 0.0357 0 0 10 0
0.6040 0.1616 0.0356 0 0 10 0
0.6040 0.1616 0.0356 0 0 10 0
0.6200 0.1616 0.0370 0 0 10 0
0.6080 0.1615 0.0364 0 0 10 0
0.6260 0.1611 0.0358 0 0 10 0
0.6200 0.1608 0.0360 0 0 10 0
0.6180 0.1600 0.0363 0 0 10 0
0.6180 0.1600 0.0363 0 0 10 0
0.6060 0.1589 0.0357 0 0 10 0
0.6000 0.1578 0.0362 0 0 10 0
0.6020 0.1574 0.0368 0 0 10 0
0.5920 0.1568 0.0376 0 0 10 0
0.6180 0.1563 0.0375 0 0 10 0
0.6180 0.1563 0.0376 0 0 10 0
0.6360 0.1563 0.0376 0 0 10 0
0.6040 0.1561 0.0409 0 0 10 0
0.6040 0.1557 0.0411 0 0 10 0
0.6280 0.1549 0.0426 0 0 10 0
0.6280 0.1549 0.0426 0 0 10 0
0.6020 0.1544 0.0439 0 0 10 0
0.5920 0.1543 0.0444 0 0 10 0
0.6140 0.1541 0.0446 0 0 10 0
0.6200 0.1540 0.0469 0 0 10 0
0.6000 0.1531 0.0518 0 0 10 0
0.6080 0.1528 0.0517 0 0 10 0
0.6080 0.1526 0.0491 0 0 10 0
0.6020 0.1522 0.0490 0 0 10 0
0.6120 0.1519 0.0544 0 0 10 0
0.6040 0.1521 0.0542 0 0 10 0
0.6040 0.1521 0.0542 0 0 10 0
0.6060 0.1520 0.0534 0 0 10 0
0.6180 0.1519 0.0545 0 0 10 0
0.5900 0.1516 0.0551 0 0 10 0
0.6120 0.1510 0.0556 0 0 10 0
0.6060 0.1507 0.0556 0 0 10 0
0.5860 0.1507 0.0550 0 0 10 0
0.5860 0.1507 0.0550 0 0 10 0
0.5920 0.1506 0.0549 0 0 10 0
0.6200 0.1504 0.0552 0 0 10 0
0.6220 0.1494 0.0552 0 0 10 0
0.6220 0.1494 0.0552 0 0 10 0
0.6300 0.1488 0.0550 0 0 10 0
0.6340 0.1484 0.0536 0 0 10 0
0.6340 0.1484 0.0536 0 0 10 0
0.6160 0.1476 0.0526 0 0 10 0
0.6060 0.1474 0.0518 0 0 10 0
0.5860 0.1478 0.0511 0 0 10 0
0.5860 0.1478 0.0511 0 0 10 0
0.6060 0.1473 0.0449 0 0 10 0
0.6060 0.1473 0.0449 0 0 10 0
0.6120 0.1474 0.0440 0 0 10 0
0.6160 0.1463 0.0446 0 0 10 0
0.6160 0.1450 0.0452 0 0 10 0
0.6220 0.1450 0.0452 0 0 10 0
0.6280 0.1436 0.0483 0 0 10 0
0.6100 0.1429 0.0492 0 0 10 0
0.6040 0.1423 0.0489 0 0 10 0
0.6040 0.1423 0.0489 0 0 10 0
0.6000 0.1425 0.0487 0 0 10 0
0.6000 0.1425 0.0487 0 0 10 0
0.6140 0.1426 0.0476 0 0 10 0
0.6000 0.1421 0.0461 0 0 10 0
0.5940 0.1414 0.0450 0 0 10 0
0.6300 0.1409 0.0443 0 0 10 0
0.6300 0.1409 0.0443 0 0 10 0
0.5840 0.1403 0.0418 0 0 10 0
0.5840 0.1403 0.0418 0 0 10 0
0.6140 0.1403 0.0416 0 0 10 0
0.6280 0.1404 0.0394 0 0 10 0
0.6080 0.1395 0.0355 0 0 10 0
0.6080 0.1395 0.0355 0 0 10 0
0.6280 0.1381 0.0317 0 0 10 0
0.6280 0.1381 0.0317 0 0 10 0
0.6140 0.1373 0.0317 0 0 10 0
0.6140 0.1373 0.0317 0 0 10 0
0.6340 0.1358 0.0321 0 0 10 0
0.6340 0.1358 0.0321 0 0 10 0
0.6100 0.1357 0.0317 0 0 10 0
0.6240 0.1353 0.0318 0 0 10 0
0.6100 0.1348 0.0317 0 0 10 0
0.6020 0.1341 0.0327 0 0 10 0
0.6300 0.1332 0.0350 0 0 10 0
0.6300 0.1332 0.0350 0 0 10 0
0.6220 0.1329 0.0370 0 0 10 0
0.6220 0.1330 0.0380 0 0 10 0
0.6200 0.1327 0.0381 0 0 10 0
0.6200 0.1327 0.0381 0 0 10 0
0.6300 0.1317 0.0398 0 0 10 0
0.6360 0.1310 0.0392 0 0 10 0
0.5980 0.1302 0.0395 0 0 10 0
0.6220 0.1298 0.0412 0 0 10 0
0.6220 0.1298 0.0412 0 0 10 0
0.6280 0.1296 0.0426 0 0 10 0
0.6280 0.1296 0.0426 0 0 10 0
0.6200 0.1292 0.0415 0 0 10 0
0.6140 0.1288 0.0426 0 0 10 0
0.6200 0.1286 0.0423 0 0 10 0
0.6200 0.1286 0.0423 0 0 10 0
0.6100 0.1283 0.0423 0 0 10 0
0.6180 0.1283 0.0416 0 0 10 0
0.6100 0.1287 0.0417 0 0 10 0
0.6180 0.1281 0.0415 0 0 10 0
0.6180 0.1281 0.0415 0 0 10 0
0.6180 0.1267 0.0347 0 0 10 0
0.6180 0.1267 0.0347 0 0 10 0
0.6300 0.1257 0.0328 0 0 10 0
0.6200 0.1246 0.0326 0 0 10 0
0.6200 0.1246 0.0326 0 0 10 0
0.6180 0.1245 0.0353 0 0 10 0
0.6240 0.1240 0.0374 0 0 10 0
0.6060 0.1236 0.0372 0 0 10 0
0.5940 0.1232 0.0392 0 0 10 0
0.6280 0.1223 0.0414 0 0 10 0
0.6280 0.1223 0.0414 0 0 10 0
0.6280 0.1223 0.0391 0 0 10 0
0.6380 0.1220 0.0387 0 0 10 0
0.6300 0.1218 0.0382 0 0 10 0
0.6340 0.1213 0.0352 0 0 10 0
0.6340 0.1213 0.0352 0 0 10 0
0.6220 0.1204 0.0340 0 0 10 0
0.6220 0.1204 0.0340 0 0 10 0
0.6240 0.1201 0.0348 0 0 10 0
0.6040 0.1199 0.0369 0 0 10 0
0.5940 0.1197 0.0359 0 0 10 0
0.5940 0.1192 0.0357 0 0 10 0
0.6200 0.1192 0.0357 0 0 10 0
0.6120 0.1188 0.0357 0 0 10 0
0.6460 0.1179 0.0334 0 0 10 0
0.6220 0.1169 0.0316 0 0 10 0
0.6300 0.1160 0.0300 0 0 10 0
0.6300 0.1160 0.0300 0 0 10 0
0.6020 0.1159 0.0290 0 0 10 0
0.6220 0.1163 0.0288 0 0 10 0
0.6300 0.1159 0.0293 0 0 10 0
0.6280 0.1158 0.0283 0 0 10 0
0.6340 0.1150 0.0334 0 0 10 0
0.6380 0.1141 0.0337 0 0 10 0
0.6380 0.1141 0.0337 0 0 10 0
0.6360 0.1136 0.0329 0 0 10 0
0.6300 0.1131 0.0294 0 0 10 0
0.6260 0.1126 0.0296 0 0 10 0
0.6540 0.1122 0.0268 0 0 10 0
0.6400 0.1118 0.0262 0 0 10 0
0.6180 0.1113 0.0268 0 0 10 0
0.6180 0.1112 0.0268 0 0 10 0
0.6320 0.1115 0.0273 0 0 10 0
0.6320 0.1114 0.0273 0 0 10 0
0.6320 0.1114 0.0273 0 0 10 0
0.6320 0.1104 0.0279 0 0 10 0
0.6260 0.1097 0.0279 0 0 10 0
0.6320 0.1092 0.0291 0 0 10 0
0.6240 0.1092 0.0291 0 0 10 0
0.6160 0.1093 0.0305 0 0 10 0
0.6340 0.1095 0.0310 0 0 10 0
0.6260 0.1096 0.0314 0 0 10 0
0.6300 0.1091 0.0330 0 0 10 0
0.6360 0.1086 0.0335 0 0 10 0
0.6360 0.1086 0.0335 0 0 10 0
0.6440 0.1080 0.0330 0 0 10 0
0.6440 0.1076 0.0332 0 0 10 0
0.6420 0.1073 0.0360 0 0 10 0
0.6540 0.1070 0.0390 0 0 10 0
0.6460 0.1063 0.0396 0 0 10 0
0.6540 0.1061 0.0391 0 0 10 0
0.6400 0.1054 0.0400 0 0 10 0
0.6320 0.1047 0.0400 0 0 10 0
0.6320 0.1047 0.0400 0 0 10 0
0.6440 0.1039 0.0415 0 0 10 0
0.6240 0.1033 0.0423 0 0 10 0
0.6300 0.1030 0.0427 0 0 10 0
0.6340 0.1024 0.0426 0 0 10 0
0.6360 0.1020 0.0423 0 0 10 0
0.6360 0.1020 0.0423 0 0 10 0
0.6340 0.1016 0.0431 0 0 10 0
0.6360 0.1012 0.0434 0 0 10 0
0.6300 0.1010 0.0441 0 0 10 0
0.6500 0.1009 0.0441 0 0 10 0
0.6500 0.1009 0.0441 0 0 10 0
0.6540 0.1007 0.0462 0 0 10 0
0.6360 0.1002 0.0462 0 0 10 0
0.6300 0.0998 0.0472 0 0 10 0
0.6340 0.0995 0.0464 0 0 10 0
0.6300 0.0993 0.0456 0 0 10 0
0.6300 0.0993 0.0456 0 0 10 0
0.6240 0.0989 0.0450 0 0 10 0
0.6420 0.0982 0.0442 0 0 10 0
0.6200 0.0977 0.0446 0 0 10 0
0.6360 0.0968 0.0443 0 0 10 0
0.6360 0.0968 0.0443 0 0 10 0
0.6440 0.0960 0.0402 0 0 10 0
0.6620 0.0956 0.0427 0 0 10 0
0.6460 0.0954 0.0458 0 0 10 0
0.6400 0.0951 0.0510 0 0 10 0
0.6360 0.0947 0.0531 0 0 10 0
0.6360 0.0947 0.0531 0 0 10 0
0.6560 0.0942 0.0523 0 0 10 0
0.6580 0.0935 0.0515 0 0 10 0
0.6380 0.0929 0.0478 0 0 10 0
0.6380 0.0929 0.0478 0 0 10 0
0.6600 0.0924 0.0452 0 0 10 0
0.6600 0.0922 0.0443 0 0 10 0
0.6380 0.0922 0.0443 0 0 10 0
0.6500 0.0919 0.0410 0 0 10 0
0.6720 0.0911 0.0395 0 0 10 0
0.6620 0.0904 0.0390 0 0 10 0
0.6620 0.0904 0.0390 0 0 10 0
0.6520 0.0889 0.0378 0 0 10 0
0.6520 0.0889 0.0378 0 0 10 0
0.6800 0.0885 0.0388 0 0 10 0
0.6700 0.0887 0.0373 0 0 10 0
0.6400 0.0891 0.0346 0 0 10 0
0.6820 0.0892 0.0348 0 0 10 0
0.6820 0.0892 0.0348 0 0 10 0
0.6680 0.0877 0.0365 0 0 10 0
0.6880 0.0871 0.0345 0 0 10 0
0.6640 0.0860 0.0344 0 0 10 0
0.6660 0.0854 0.0399 0 0 10 0
0.6660 0.0854 0.0399 0 0 10 0
0.6680 0.0852 0.0402 0 0 10 0
0.6680 0.0850 0.0455 0 0 10 0
0.6580 0.0847 0.0477 0 0 10 0
0.6500 0.0837 0.0497 0 0 10 0
0.6720 0.0831 0.0505 0 0 10 0
0.6620 0.0827 0.0502 0 0 10 0
0.6680 0.0823 0.0495 0 0 10 0
0.6600 0.0822 0.0477 0 0 10 0
0.6580 0.0821 0.0442 0 0 10 0
0.6580 0.0821 0.0442 0 0 10 0
0.6720 0.0819 0.0444 0 0 10 0
0.6580 0.0812 0.0440 0 0 10 0
0.6760 0.0809 0.0435 0 0 10 0
0.6840 0.0797 0.0394 0 0 10 0
0.6840 0.0797 0.0394 0 0 10 0
0.6720 0.0781 0.0409 0 0 10 0
0.6720 0.0781 0.0409 0 0 10 0
0.6720 0.0773 0.0383 0 0 10 0
0.6600 0.0768 0.0372 0 0 10 0
0.6380 0.0765 0.0369 0 0 10 0
0.6380 0.0765 0.0369 0 0 10 0
0.6520 0.0764 0.0359 0 0 10 0
0.6820 0.0767 0.0324 0 0 0 0
0.6980 0.0746 0.0349 0 0 0 -10
0.6740 0.0740 0.0339 0 0 0 -10
0.6720 0.0737 0.0324 0 0 0 -10
0.6720 0.0734 0.0324 0 0 0 0
0.6820 0.0725 0.0303 0 0 0 -10
0.6500 0.0729 0.0287 0 0 0 -10
0.6580 0.0727 0.0288 0 0 0 -10
0.6640 0.0730 0.0296 0 0 0 0
0.6720 0.0729 0.0300 0 0 0 -10
0.6760 0.0733 0.0307 0 0 0 -10
0.6740 0.0731 0.0293 0 0 0 -10
0.6760 0.0727 0.0293 0 0 0 0
0.6720 0.0727 0.0165 0 0 0 -10
0.6700 0.0730 0.0175 0 0 0 -10
0.6700 0.0730 0.0175 0 0 0 -10
0.7040 0.0720 0.0198 0 0 0 0
0.6820 0.0722 0.0191 0 0 0 -10
0.7000 0.0732 0.0186 0 0 0 -10
0.6900 0.0731 0.0191 0 0 0 -10
0.6940 0.0727 0.0159 0 0 0 0
0.6980 0.0733 0.0087 0 0 0 -10
0.6800 0.0730 0.0099 0 0 0 0
0.6880 0.0724 0.0141 0 0 0 -10
0.6760 0.0709 0.0110 0 0 0 -10
0.6760 0.0716 0.0120 0 0 0 0
0.6880 0.0719 -0.0040 0 0 0 -10
0.6860 0.0722 -0.0066 0 0 0 0
0.6940 0.0713 -0.0097 0 0 10 0
0.6980 0.0718 -0.0084 0 0 10 0
0.6900 0.0720 -0.0099 0 0 10 0
0.6900 0.0722 -0.0069 0 0 10 0
0.6920 0.0720 -0.0062 0 0 10 0
0.6820 0.0720 -0.0065 0 0 10 0
0.6820 0.0720 -0.0065 0 0 10 0
0.6860 0.0715 -0.0029 0 0 10 0
0.6980 0.0715 -0.0029 0 0 10 0
0.6740 0.0722 -0.0025 0 0 10 0
0.6740 0.0725 -0.0024 0 0 10 0
0.7040 0.0726 -0.0042 0 0 10 0
0.6920 0.0726 -0.0038 0 0 10 0
0.6920 0.0726 -0.0038 0 0 10 0
0.6920 0.0707 -0.0055 0 0 10 0
0.6920 0.0707 -0.0055 0 0 10 0
0.6940 0.0698 -0.0026 0 0 10 0
0.6780 0.0689 -0.0031 0 0 10 0
0.6940 0.0683 -0.0003 0 0 10 0
0.6940 0.0683 -0.0003 0 0 10 0
0.7020 0.0679 -0.0003 0 0 10 0
0.6980 0.0683 -0.0005 0 0 10 0
0.7120 0.0689 -0.0006 0 0 10 0
0.7060 0.0686 -0.0032 0 0 10 0
0.7060 0.0686 -0.0032 0 0 10 0
0.7120 0.0670 -0.0015 0 0 10 0
0.7120 0.0670 -0.0015 0 0 10 0
0.6860 0.0664 0.0022 0 0 10 0
0.6960 0.0662 0.0050 0 0 10 0
0.7000 0.0661 0.0033 0 0 10 0
0.7000 0.0661 0.0033 0 0 10 0
0.7140 0.0653 0.0029 0 0 10 0
0.6800 0.0647 -0.0000 0 0 10 0
0.7220 0.0643 0.0001 0 0 10 0
0.7100 0.0639 -0.0005 0 0 10 0
0.6880 0.0635 -0.0017 0 0 10 0
0.6920 0.0634 -0.0042 0 0 10 0
0.6920 0.0634 -0.0042 0 0 10 0
0.6800 0.0633 -0.0070 0 0 10 0
0.6880 0.0635 -0.0072 0 0 10 0
0.6800 0.0633 -0.0093 0 0 10 0
0.6660 0.0623 -0.0141 0 0 10 0
0.6660 0.0623 -0.0141 0 0 10 0
0.7080 0.0618 -0.0143 0 0 10 0
0.7120 0.0613 -0.0143 0 0 10 0
0.6920 0.0609 -0.0153 0 0 10 0
0.6920 0.0601 -0.0147 0 0 10 0
0.7000 0.0597 -0.0132 0 0 10 0
0.6840 0.0591 -0.0127 0 0 10 0
0.6840 0.0591 -0.0127 0 0 10 0
0.6980 0.0583 -0.0170 0 0 10 0
0.6980 0.0583 -0.0170 0 0 10 0
0.6980 0.0577 -0.0201 0 0 10 0
0.6980 0.0577 -0.0201 0 0 10 0
0.7020 0.0568 -0.0216 0 0 10 0
0.7120 0.0562 -0.0192 0 0 10 0
0.6880 0.0563 -0.0188 0 0 0 0
0.7140 0.0544 0.0006 0 0 0 10
0.7180 0.0540 0.0024 0 0 0 0
0.7300 0.0547 0.0108 0 0 10 0
0.7180 0.0541 0.0076 0 0 10 0
0.7320 0.0540 0.0077 0 0 10 0
0.7120 0.0541 0.0065 0 0 10 0
0.7080 0.0539 0.0061 0 0 10 0
0.7200 0.0541 0.0075 0 0 10 0
0.7100 0.0540 0.0066 0 0 10 0
0.7100 0.0540 0.0066 0 0 10 0
0.7280 0.0541 0.0077 0 0 10 0
0.7140 0.0543 0.0079 0 0 10 0
0.7380 0.0543 0.0067 0 0 10 0
0.7320 0.0542 0.0069 0 0 10 0
0.7280 0.0540 0.0215 0 0 10 0
0.7280 0.0540 0.0208 0 0 10 0
0.7260 0.0540 0.0208 0 0 10 0
0.7240 0.0540 0.0172 0 0 10 0
0.7240 0.0539 0.0179 0 0 10 0
0.7200 0.0529 0.0158 0 0 10 0
0.7300 0.0522 0.0133 0 0 10 0
0.7300 0.0513 0.0169 0 0 10 0
0.7340 0.0513 0.0169 0 0 10 0
0.7040 0.0509 0.0148 0 0 10 0
0.7100 0.0506 0.0151 0 0 10 0
0.7200 0.0500 0.0140 0 0 10 0
0.7120 0.0499 0.0171 0 0 10 0
0.7120 0.0499 0.0171 0 0 10 0
0.7080 0.0492 0.0168 0 0 10 0
0.7060 0.0493 0.0155 0 0 10 0
0.7200 0.0492 0.0096 0 0 10 0
0.7200 0.0490 0.0096 0 0 10 0
0.7200 0.0485 0.0101 0 0 10 0
0.7200 0.0485 0.0101 0 0 10 0
0.7280 0.0482 0.0099 0 0 10 0
0.7300 0.0476 0.0094 0 0 10 0
0.7220 0.0472 0.0072 0 0 10 0
0.7180 0.0468 0.0069 0 0 10 0
0.7180 0.0468 0.0069 0 0 10 0
0.7100 0.0463 0.0031 0 0 10 0
0.7340 0.0458 0.0032 0 0 10 0
0.7380 0.0451 0.0070 0 0 10 0
0.7180 0.0442 0.0069 0 0 10 0
0.7200 0.0436 0.0063 0 0 10 0
0.7200 0.0436 0.0063 0 0 10 0
0.7340 0.0421 0.0101 0 0 10 0
0.7340 0.0421 0.0101 0 0 10 0
0.7400 0.0416 0.0072 0 0 10 0
0.7300 0.0402 0.0045 0 0 10 0
0.7440 0.0397 0.0040 0 0 10 0
0.7440 0.0397 0.0040 0 0 10 0
0.7320 0.0388 0.0057 0 0 10 0
0.7360 0.0388 0.0036 0 0 10 0
0.7360 0.0388 0.0036 0 0 10 0
0.7300 0.0383 0.0033 0 0 10 0
0.7300 0.0383 0.0033 0 0 10 0
0.7380 0.0378 0.0045 0 0 10 0
0.7360 0.0378 0.0044 0 0 10 0
0.7440 0.0378 0.0029 0 0 10 0
0.7500 0.0375 0.0051 0 0 10 0
0.7500 0.0375 0.0051 0 0 10 0
0.7460 0.0368 0.0041 0 0 10 0
0.7560 0.0363 0.0016 0 0 10 0
0.7340 0.0361 -0.0014 0 0 10 0
0.7320 0.0354 -0.0019 0 0 10 0
0.7320 0.0354 -0.0019 0 0 10 0
0.7540 0.0348 -0.0048 0 0 10 0
0.7400 0.0341 -0.0049 0 0 10 0
0.7520 0.0340 -0.0034 0 0 10 0
0.7120 0.0340 -0.0033 0 0 10 0
0.7120 0.0340 -0.0033 0 0 10 0
0.7380 0.0342 -0.0022 0 0 10 0
0.7220 0.0340 -0.0026 0 0 10 0
0.7340 0.0335 -0.0032 0 0 10 0
0.7260 0.0331 -0.0030 0 0 10 0
0.7460 0.0323 -0.0041 0 0 10 0
0.7360 0.0318 -0.0048 0 0 10 0
0.7360 0.0318 -0.0048 0 0 10 0
0.7400 0.0316 -0.0039 0 0 10 0
0.7180 0.0314 -0.0037 0 0 10 0
0.7480 0.0311 0.0011 0 0 10 0
0.7480 0.0311 0.0011 0 0 10 0
0.7320 0.0299 0.0072 0 0 10 0
0.7560 0.0299 0.0072 0 0 10 0
0.7460 0.0285 0.0065 0 0 10 0
0.7420 0.0281 0.0045 0 0 10 0
0.7460 0.0282 0.0039 0 0 10 0
0.7220 0.0284 0.0033 0 0 10 0
0.7520 0.0285 0.0017 0 0 10 0
0.7520 0.0285 0.0017 0 0 10 0
0.7300 0.0283 0.0052 0 0 10 0
0.7480 0.0276 0.0070 0 0 10 0
0.7520 0.0264 0.0048 0 0 10 0
0.7500 0.0256 0.0046 0 0 10 0
0.7380 0.0245 0.0048 0 0 10 0
0.7380 0.0245 0.0048 0 0 10 0
0.7400 0.0242 0.0034 0 0 10 0
0.7400 0.0242 0.0034 0 0 10 0
0.7600 0.0243 0.0034 0 0 10 0
0.7640 0.0243 0.0020 0 0 10 0
0.7560 0.0235 0.0015 0 0 10 0
0.7560 0.0235 0.0015 0 0 10 0
0.7580 0.0223 -0.0042 0 0 10 0
0.7340 0.0213 -0.0042 0 0 10 0
0.7380 0.0212 0.0008 0 0 10 0
0.7420 0.0207 0.0005 0 0 10 0
0.7420 0.0207 0.0005 0 0 10 0
0.7480 0.0201 0.0007 0 0 10 0
0.7480 0.0201 0.0007 0 0 10 0
0.7380 0.0196 0.0004 0 0 10 0
0.7420 0.0193 0.0004 0 0 10 0
0.7280 0.0192 0.0033 0 0 10 0
0.7280 0.0192 0.0033 0 0 10 0
0.7460 0.0180 0.0036 0 0 10 0
0.7460 0.0180 0.0036 0 0 10 0
0.7380 0.0166 0.0051 0 0 10 0
0.7560 0.0161 0.0072 0 0 10 0
0.7560 0.0161 0.0072 0 0 10 0
0.7620 0.0158 0.0083 0 0 10 0
0.7620 0.0158 0.0083 0 0 10 0
0.7520 0.0155 0.0065 0 0 10 0
0.7420 0.0154 0.0059 0 0 10 0
0.7380 0.0148 0.0055 0 0 10 0
0.7580 0.0137 0.0052 0 0 10 0
0.7580 0.0137 0.0052 0 0 10 0
0.7500 0.0126 -0.0009 0 0 10 0
0.7500 0.0126 -0.0009 0 0 10 0
0.7480 0.0123 -0.0040 0 0 10 0
0.7560 0.0117 -0.0073 0 0 10 0
0.7640 0.0114 -0.0078 0 0 10 0
0.7560 0.0109 -0.0063 0 0 10 0
0.7400 0.0105 -0.0063 0 0 10 0
0.7520 0.0107 -0.0061 0 0 10 0
0.7520 0.0107 -0.0061 0 0 10 0
0.7500 0.0101 -0.0058 0 0 10 0
0.7560 0.0091 -0.0044 0 0 10 0
0.7720 0.0082 -0.0044 0 0 10 0
0.7720 0.0082 -0.0044 0 0 10 0
0.7560 0.0078 -0.0074 0 0 10 0
0.7320 0.0074 -0.0070 0 0 10 0
0.7420 0.0073 -0.0066 0 0 10 0
0.7500 0.0073 -0.0068 0 0 10 0
0.7520 0.0072 -0.0090 0 0 10 0
0.7520 0.0068 -0.0085 0 0 10 0
0.7440 0.0068 -0.0085 0 0 10 0
0.7520 0.0063 -0.0103 0 0 10 0
0.7480 0.0056 -0.0098 0 0 10 0
