0.5200 0.3675 0.0079 0 0 10 0
0.5360 0.3684 0.0075 0 0 10 0
0.5340 0.3688 0.0075 0 0 10 0
0.5220 0.3687 0.0100 0 0 10 0
0.5220 0.3687 0.0100 0 0 10 0
0.5480 0.3686 0.0097 0 0 10 0
0.5500 0.3686 0.0056 0 0 10 0
0.5500 0.3686 0.0056 0 0 10 0
0.5440 0.3685 0.0072 0 0 10 0
0.5400 0.3687 0.0063 0 0 10 0
0.5540 0.3688 0.0070 0 0 10 0
0.5280 0.3686 0.0052 0 0 10 0
0.5340 0.3685 0.0066 0 0 10 0
0.5240 0.3688 0.0067 0 0 10 0
0.5140 0.3688 0.0072 0 0 10 0
0.5140 0.3688 0.0072 0 0 10 0
0.5340 0.3680 0.0060 0 0 10 0
0.5340 0.3680 0.0060 0 0 10 0
0.5500 0.3672 0.0058 0 0 10 0
0.5200 0.3668 0.0045 0 0 10 0
0.5200 0.3668 0.0045 0 0 10 0
0.5500 0.3665 0.0068 0 0 10 0
0.5520 0.3664 0.0092 0 0 10 0
0.5400 0.3665 0.0099 0 0 10 0
0.5520 0.3661 0.0104 0 0 10 0
0.5520 0.3661 0.0104 0 0 10 0
0.5300 0.3652 0.0112 0 0 10 0
0.5300 0.3652 0.0112 0 0 10 0
0.5280 0.3646 0.0120 0 0 10 0
0.5500 0.3641 0.0136 0 0 10 0
0.5380 0.3638 0.0143 0 0 10 0
0.5380 0.3638 0.0143 0 0 10 0
0.5440 0.3641 0.0148 0 0 10 0
0.5280 0.3639 0.0146 0 0 10 0
0.5180 0.3640 0.0167 0 0 10 0
0.5300 0.3635 0.0167 0 0 10 0
0.5360 0.3631 0.0158 0 0 10 0
0.5360 0.3631 0.0158 0 0 10 0
0.5220 0.3623 0.0162 0 0 10 0
0.5120 0.3618 0.0195 0 0 10 0
0.5360 0.3613 0.0198 0 0 10 0
0.5340 0.3610 0.0182 0 0 10 0
0.5320 0.3606 0.0191 0 0 10 0
0.5320 0.3606 0.0191 0 0 10 0
0.5300 0.3602 0.0162 0 0 10 0
0.5300 0.3602 0.0162 0 0 10 0
0.5320 0.3595 0.0178 0 0 10 0
0.5180 0.3582 0.0197 0 0 10 0
0.5280 0.3579 0.0200 0 0 10 0
0.5360 0.3576 0.0207 0 0 10 0
0.5260 0.3572 0.0217 0 0 10 0
0.5260 0.3572 0.0217 0 0 10 0
0.5220 0.3574 0.0203 0 0 10 0
0.5180 0.3573 0.0204 0 0 10 0
0.5380 0.3569 0.0219 0 0 10 0
0.5320 0.3565 0.0215 0 0 10 0
0.5320 0.3559 0.0227 0 0 10 0
0.5260 0.3559 0.0227 0 0 10 0
0.5160 0.3552 0.0228 0 0 10 0
0.5180 0.3545 0.0253 0 0 10 0
0.5380 0.3534 0.0252 0 0 10 0
0.5220 0.3528 0.0239 0 0 10 0
0.5220 0.3528 0.0239 0 0 10 0
0.5340 0.3525 0.0237 0 0 10 0
0.5360 0.3522 0.0243 0 0 10 0
0.5340 0.3521 0.0224 0 0 10 0
0.5080 0.3521 0.0224 0 0 10 0
0.5120 0.3511 0.0218 0 0 10 0
0.5140 0.3503 0.0216 0 0 10 0
0.5040 0.3494 0.0206 0 0 10 0
0.5040 0.3494 0.0206 0 0 10 0
0.5260 0.3487 0.0181 0 0 10 0
0.5500 0.3485 0.0178 0 0 10 0
0.5160 0.3488 0.0149 0 0 10 0
0.5260 0.3484 0.0134 0 0 10 0
0.5480 0.3479 0.0115 0 0 10 0
0.5200 0.3471 0.0102 0 0 10 0
0.5420 0.3460 0.0104 0 0 10 0
0.5300 0.3451 0.0094 0 0 10 0
0.5300 0.3451 0.0094 0 0 10 0
0.5200 0.3451 0.0089 0 0 10 0
0.5260 0.3455 0.0108 0 0 10 0
0.5260 0.3456 0.0106 0 0 10 0
0.5400 0.3453 0.0090 0 0 10 0
0.5420 0.3447 0.0071 0 0 10 0
0.5420 0.3447 0.0071 0 0 10 0
0.5460 0.3428 0.0061 0 0 10 0
0.5400 0.3421 0.0049 0 0 10 0
0.5300 0.3419 0.0083 0 0 10 0
0.5420 0.3419 0.0084 0 0 10 0
0.5420 0.3419 0.0084 0 0 10 0
0.5200 0.3424 0.0055 0 0 10 0
0.5300 0.3423 0.0058 0 0 10 0
0.5260 0.3422 0.0065 0 0 10 0
0.5480 0.3414 0.0050 0 0 10 0
0.5320 0.3411 0.0051 0 0 10 0
0.5320 0.3411 0.0051 0 0 10 0
0.5300 0.3406 0.0047 0 0 10 0
0.5360 0.3398 0.0051 0 0 10 0
0.5340 0.3393 0.0064 0 0 10 0
0.5340 0.3393 0.0064 0 0 10 0
0.5260 0.3388 0.0062 0 0 10 0
0.5260 0.3388 0.0062 0 0 10 0
0.5380 0.3384 0.0065 0 0 10 0
0.5460 0.3373 0.0066 0 0 10 0
0.5600 0.3366 0.0078 0 0 10 0
0.5520 0.3365 0.0075 0 0 10 0
0.5520 0.3365 0.0075 0 0 10 0
0.5280 0.3366 0.0056 0 0 10 0
0.5160 0.3369 0.0053 0 0 10 0
0.5520 0.3367 0.0069 0 0 10 0
0.5180 0.3362 0.0061 0 0 10 0
0.5180 0.3356 0.0055 0 0 10 0
0.5320 0.3351 0.0061 0 0 10 0
0.5320 0.3351 0.0061 0 0 10 0
0.5400 0.3344 0.0069 0 0 10 0
0.5300 0.3343 0.0074 0 0 10 0
0.5320 0.3339 0.0050 0 0 10 0
0.5320 0.3339 0.0050 0 0 10 0
0.5220 0.3326 0.0060 0 0 10 0
0.5520 0.3321 0.0049 0 0 10 0
0.5320 0.3322 0.0027 0 0 10 0
0.5620 0.3322 0.0021 0 0 10 0
0.5340 0.3319 0.0022 0 0 10 0
0.5340 0.3319 0.0022 0 0 10 0
0.5300 0.3314 0.0029 0 0 10 0
0.5260 0.3310 0.0029 0 0 10 0
0.5260 0.3303 0.0044 0 0 10 0
0.5260 0.3303 0.0044 0 0 10 0
0.5440 0.3290 0.0031 0 0 10 0
0.5360 0.3288 0.0027 0 0 10 0
0.5360 0.3288 0.0027 0 0 10 0
0.5200 0.3288 0.0042 0 0 10 0
0.5380 0.3288 0.0045 0 0 10 0
0.5220 0.3289 0.0048 0 0 10 0
0.5220 0.3289 0.0048 0 0 10 0
0.5380 0.3277 0.0066 0 0 10 0
0.5380 0.3277 0.0066 0 0 10 0
0.5280 0.3273 0.0068 0 0 10 0
0.5420 0.3265 0.0070 0 0 10 0
0.5460 0.3262 0.0078 0 0 10 0
0.5740 0.3260 0.0058 0 0 10 0
0.5740 0.3260 0.0058 0 0 10 0
0.5560 0.3259 0.0064 0 0 10 0
0.5380 0.3259 0.0086 0 0 10 0
0.5380 0.3259 0.0086 0 0 10 0
0.5420 0.3260 0.0100 0 0 10 0
0.5320 0.3248 0.0109 0 0 10 0
0.5320 0.3248 0.0109 0 0 10 0
0.5320 0.3238 0.0109 0 0 10 0
0.5320 0.3230 0.0123 0 0 10 0
0.5360 0.3226 0.0116 0 0 10 0
0.5380 0.3222 0.0109 0 0 10 0
0.5380 0.3222 0.0109 0 0 10 0
0.5260 0.3221 0.0105 0 0 10 0
0.5260 0.3221 0.0105 0 0 10 0
0.5260 0.3223 0.0113 0 0 10 0
0.5260 0.3221 0.0120 0 0 10 0
0.5340 0.3216 0.0138 0 0 10 0
0.5340 0.3212 0.0136 0 0 10 0
0.5340 0.3212 0.0136 0 0 10 0
0.5620 0.3201 0.0194 0 0 10 0
0.5620 0.3201 0.0194 0 0 10 0
0.5480 0.3195 0.0170 0 0 10 0
0.5440 0.3194 0.0169 0 0 10 0
0.5460 0.3194 0.0173 0 0 10 0
0.5240 0.3190 0.0168 0 0 10 0
0.5240 0.3190 0.0168 0 0 10 0
0.5280 0.3183 0.0165 0 0 10 0
0.5280 0.3183 0.0165 0 0 10 0
0.5400 0.3175 0.0169 0 0 10 0
0.5580 0.3176 0.0169 0 0 10 0
0.5400 0.3176 0.0163 0 0 10 0
0.5400 0.3174 0.0168 0 0 10 0
0.5340 0.3174 0.0168 0 0 10 0
0.5280 0.3160 0.0174 0 0 10 0
0.5280 0.3160 0.0174 0 0 10 0
0.5260 0.3145 0.0186 0 0 10 0
0.5300 0.3134 0.0166 0 0 10 0
0.5360 0.3135 0.0183 0 0 10 0
0.5360 0.3135 0.0183 0 0 10 0
0.5420 0.3138 0.0193 0 0 10 0
0.5280 0.3140 0.0191 0 0 10 0
0.5320 0.3137 0.0190 0 0 10 0
0.5580 0.3129 0.0205 0 0 10 0
0.5340 0.3119 0.0202 0 0 10 0
0.5320 0.3111 0.0198 0 0 10 0
0.5320 0.3111 0.0198 0 0 10 0
0.5420 0.3103 0.0178 0 0 10 0
0.5400 0.3102 0.0184 0 0 10 0
0.5420 0.3103 0.0182 0 0 10 0
0.5420 0.3103 0.0182 0 0 10 0
0.5540 0.3106 0.0147 0 0 10 0
0.5160 0.3102 0.0150 0 0 10 0
0.5300 0.3094 0.0148 0 0 10 0
0.5280 0.3075 0.0147 0 0 10 0
0.5380 0.3066 0.0120 0 0 10 0
0.5220 0.3060 0.0119 0 0 10 0
0.5360 0.3058 0.0130 0 0 10 0
0.5260 0.3057 0.0129 0 0 10 0
0.5260 0.3058 0.0132 0 0 10 0
0.5260 0.3058 0.0132 0 0 10 0
0.5340 0.3059 0.0128 0 0 10 0
0.5460 0.3056 0.0118 0 0 10 0
0.5360 0.3047 0.0123 0 0 10 0
0.5360 0.3047 0.0123 0 0 10 0
0.5520 0.3042 0.0128 0 0 10 0
0.5400 0.3035 0.0145 0 0 10 0
0.5240 0.3032 0.0141 0 0 10 0
0.5440 0.3029 0.0135 0 0 10 0
0.5340 0.3026 0.0136 0 0 10 0
0.5340 0.3027 0.0142 0 0 10 0
0.5380 0.3027 0.0142 0 0 10 0
0.5460 0.3029 0.0131 0 0 10 0
0.5360 0.3027 0.0127 0 0 10 0
0.5420 0.3024 0.0146 0 0 10 0
0.5640 0.3018 0.0147 0 0 10 0
0.5640 0.3018 0.0147 0 0 10 0
0.5620 0.2999 0.0157 0 0 10 0
0.5420 0.2995 0.0154 0 0 10 0
0.5360 0.2994 0.0150 0 0 10 0
0.5640 0.2992 0.0135 0 0 10 0
0.5640 0.2992 0.0135 0 0 10 0
0.5400 0.2987 0.0137 0 0 10 0
0.5420 0.2983 0.0174 0 0 10 0
0.5380 0.2978 0.0180 0 0 10 0
0.5480 0.2975 0.0169 0 0 10 0
0.5460 0.2968 0.0167 0 0 10 0
0.5560 0.2970 0.0189 0 0 10 0
0.5500 0.2968 0.0189 0 0 10 0
0.5500 0.2968 0.0189 0 0 10 0
0.5420 0.2964 0.0208 0 0 10 0
0.5380 0.2953 0.0206 0 0 10 0
0.5580 0.2952 0.0205 0 0 10 0
0.5500 0.2947 0.0205 0 0 10 0
0.5320 0.2940 0.0195 0 0 10 0
0.5060 0.2933 0.0198 0 0 10 0
0.5320 0.2929 0.0203 0 0 10 0
0.5320 0.2929 0.0203 0 0 10 0
0.5320 0.2924 0.0207 0 0 10 0
0.5440 0.2920 0.0211 0 0 10 0
0.5440 0.2920 0.0211 0 0 10 0
0.5520 0.2917 0.0211 0 0 10 0
0.5280 0.2909 0.0220 0 0 10 0
0.5480 0.2904 0.0214 0 0 10 0
0.5480 0.2899 0.0223 0 0 10 0
0.5500 0.2899 0.0223 0 0 10 0
0.5500 0.2899 0.0223 0 0 10 0
0.5540 0.2897 0.0183 0 0 10 0
0.5700 0.2893 0.0176 0 0 10 0
0.5420 0.2888 0.0170 0 0 10 0
0.5240 0.2886 0.0174 0 0 10 0
0.5360 0.2881 0.0173 0 0 10 0
0.5360 0.2881 0.0173 0 0 10 0
0.5220 0.2875 0.0180 0 0 10 0
0.5480 0.2872 0.0179 0 0 10 0
0.5420 0.2867 0.0174 0 0 10 0
0.5560 0.2866 0.0177 0 0 10 0
0.5400 0.2867 0.0172 0 0 10 0
0.5460 0.2867 0.0174 0 0 10 0
0.5380 0.2863 0.0164 0 0 10 0
0.5180 0.2856 0.0164 0 0 10 0
0.5240 0.2847 0.0164 0 0 10 0
0.5240 0.2847 0.0164 0 0 10 0
0.5260 0.2842 0.0151 0 0 10 0
0.5380 0.2836 0.0128 0 0 10 0
0.5460 0.2832 0.0145 0 0 10 0
0.5460 0.2833 0.0145 0 0 10 0
0.5460 0.2833 0.0133 0 0 10 0
0.5460 0.2829 0.0138 0 0 10 0
0.5500 0.2824 0.0145 0 0 10 0
0.5500 0.2824 0.0145 0 0 10 0
0.5720 0.2814 0.0155 0 0 10 0
0.5380 0.2808 0.0142 0 0 10 0
0.5400 0.2805 0.0132 0 0 10 0
0.5400 0.2805 0.0132 0 0 10 0
0.5280 0.2806 0.0141 0 0 10 0
0.5280 0.2806 0.0141 0 0 10 0
0.5380 0.2806 0.0125 0 0 10 0
0.5480 0.2802 0.0126 0 0 10 0
0.5480 0.2799 0.0125 0 0 10 0
0.5420 0.2792 0.0095 0 0 10 0
0.5420 0.2792 0.0095 0 0 10 0
0.5500 0.2782 0.0090 0 0 10 0
0.5240 0.2774 0.0091 0 0 10 0
0.5520 0.2769 0.0090 0 0 10 0
0.5580 0.2764 0.0059 0 0 10 0
0.5520 0.2760 0.0055 0 0 10 0
0.5520 0.2760 0.0055 0 0 10 0
0.5400 0.2759 0.0057 0 0 10 0
0.5260 0.2757 0.0057 0 0 10 0
0.5260 0.2755 0.0049 0 0 10 0
0.5420 0.2751 0.0051 0 0 10 0
0.5420 0.2751 0.0051 0 0 10 0
0.5440 0.2735 0.0058 0 0 10 0
0.5440 0.2735 0.0058 0 0 10 0
0.5420 0.2725 0.0056 0 0 10 0
0.5240 0.2719 0.0068 0 0 10 0
0.5140 0.2721 0.0059 0 0 10 0
0.5100 0.2722 0.0057 0 0 10 0
0.5100 0.2722 0.0057 0 0 10 0
0.5440 0.2714 0.0048 0 0 10 0
0.5380 0.2711 0.0067 0 0 10 0
0.5520 0.2705 0.0063 0 0 10 0
0.5440 0.2704 0.0076 0 0 10 0
0.5500 0.2705 0.0087 0 0 10 0
0.5500 0.2705 0.0087 0 0 10 0
0.5380 0.2704 0.0112 0 0 10 0
0.5600 0.2694 0.0109 0 0 10 0
0.5460 0.2694 0.0109 0 0 10 0
0.5560 0.2692 0.0103 0 0 10 0
0.5520 0.2683 0.0120 0 0 10 0
0.5340 0.2677 0.0126 0 0 10 0
0.5340 0.2677 0.0126 0 0 10 0
0.5400 0.2671 0.0123 0 0 10 0
0.5460 0.2663 0.0151 0 0 10 0
0.5500 0.2662 0.0151 0 0 10 0
0.5560 0.2658 0.0125 0 0 10 0
0.5400 0.2653 0.0121 0 0 10 0
0.5300 0.2645 0.0137 0 0 10 0
0.5300 0.2645 0.0137 0 0 10 0
0.5320 0.2638 0.0136 0 0 10 0
0.5140 0.2632 0.0137 0 0 10 0
0.5360 0.2630 0.0137 0 0 10 0
0.5380 0.2628 0.0160 0 0 10 0
0.5380 0.2621 0.0157 0 0 10 0
0.5500 0.2616 0.0130 0 0 10 0
0.5500 0.2616 0.0130 0 0 10 0
0.5480 0.2606 0.0152 0 0 10 0
0.5540 0.2606 0.0157 0 0 10 0
0.5540 0.2605 0.0156 0 0 10 0
0.5560 0.2602 0.0168 0 0 10 0
0.5400 0.2601 0.0174 0 0 10 0
0.5320 0.2596 0.0180 0 0 10 0
0.5320 0.2596 0.0180 0 0 10 0
0.5440 0.2590 0.0161 0 0 10 0
0.5400 0.2585 0.0155 0 0 10 0
0.5700 0.2581 0.0164 0 0 10 0
0.5700 0.2573 0.0158 0 0 10 0
0.5740 0.2573 0.0158 0 0 10 0
0.5420 0.2576 0.0138 0 0 10 0
0.5580 0.2576 0.0138 0 0 10 0
0.5640 0.2578 0.0134 0 0 10 0
0.5600 0.2578 0.0149 0 0 10 0
0.5560 0.2576 0.0141 0 0 10 0
0.5560 0.2576 0.0141 0 0 10 0
0.5560 0.2567 0.0166 0 0 10 0
0.5620 0.2556 0.0162 0 0 10 0
0.5780 0.2552 0.0135 0 0 10 0
0.5620 0.2551 0.0134 0 0 10 0
0.5580 0.2549 0.0135 0 0 10 0
0.5600 0.2546 0.0136 0 0 10 0
0.5540 0.2541 0.0117 0 0 10 0
0.5540 0.2541 0.0117 0 0 10 0
0.5500 0.2536 0.0117 0 0 10 0
0.5460 0.2533 0.0102 0 0 10 0
0.5540 0.2526 0.0095 0 0 10 0
0.5540 0.2526 0.0095 0 0 10 0
0.5840 0.2516 0.0086 0 0 10 0
0.5840 0.2509 0.0088 0 0 10 0
0.5700 0.2509 0.0088 0 0 10 0
0.5780 0.2500 0.0063 0 0 10 0
0.5780 0.2500 0.0063 0 0 10 0
0.5620 0.2496 0.0070 0 0 10 0
0.5860 0.2499 0.0048 0 0 10 0
0.5580 0.2498 0.0036 0 0 10 0
0.5580 0.2498 0.0036 0 0 10 0
0.5900 0.2496 0.0022 0 0 10 0
0.5680 0.2489 0.0086 0 0 10 0
0.5540 0.2484 0.0087 0 0 10 0
0.5740 0.2476 0.0066 0 0 10 0
0.5720 0.2471 0.0070 0 0 10 0
0.5500 0.2469 0.0084 0 0 10 0
0.5780 0.2459 0.0085 0 0 10 0
0.5780 0.2459 0.0085 0 0 10 0
0.5780 0.2451 0.0087 0 0 10 0
0.5840 0.2439 0.0076 0 0 10 0
0.5820 0.2434 0.0076 0 0 10 0
0.5820 0.2436 0.0036 0 0 10 0
0.5740 0.2440 0.0038 0 0 10 0
0.5740 0.2440 0.0038 0 0 10 0
0.5760 0.2444 0.0038 0 0 10 0
0.5800 0.2441 0.0042 0 0 10 0
0.5520 0.2431 0.0076 0 0 10 0
0.5940 0.2424 0.0079 0 0 10 0
0.5940 0.2424 0.0079 0 0 10 0
0.5740 0.2414 0.0138 0 0 10 0
0.5960 0.2409 0.0145 0 0 10 0
0.5660 0.2406 0.0138 0 0 10 0
0.5680 0.2402 0.0142 0 0 10 0
0.5740 0.2395 0.0134 0 0 10 0
0.5740 0.2395 0.0134 0 0 10 0
0.5700 0.2387 0.0132 0 0 10 0
0.5880 0.2380 0.0111 0 0 10 0
0.5720 0.2373 0.0112 0 0 10 0
0.5820 0.2371 0.0129 0 0 10 0
0.5700 0.2370 0.0132 0 0 10 0
0.5780 0.2374 0.0135 0 0 10 0
0.5780 0.2373 0.0131 0 0 10 0
0.5680 0.2373 0.0131 0 0 10 0
0.5760 0.2368 0.0129 0 0 10 0
0.5640 0.2358 0.0095 0 0 10 0
0.5620 0.2351 0.0091 0 0 10 0
0.5620 0.2350 0.0132 0 0 10 0
0.5820 0.2348 0.0135 0 0 10 0
0.5880 0.2348 0.0208 0 0 10 0
0.5880 0.2348 0.0208 0 0 10 0
0.5740 0.2340 0.0182 0 0 10 0
0.5740 0.2340 0.0182 0 0 10 0
0.5860 0.2329 0.0151 0 0 10 0
0.5960 0.2324 0.0150 0 0 10 0
0.5760 0.2322 0.0164 0 0 10 0
0.5760 0.2319 0.0162 0 0 10 0
0.5760 0.2319 0.0162 0 0 10 0
0.5860 0.2314 0.0128 0 0 10 0
0.5840 0.2309 0.0129 0 0 10 0
0.5960 0.2305 0.0131 0 0 10 0
0.5920 0.2303 0.0130 0 0 10 0
0.5840 0.2303 0.0096 0 0 10 0
0.5840 0.2303 0.0096 0 0 10 0
0.5860 0.2299 0.0095 0 0 10 0
0.6020 0.2298 0.0073 0 0 10 0
0.5900 0.2294 0.0078 0 0 10 0
0.5960 0.2286 0.0096 0 0 10 0
0.5940 0.2280 0.0103 0 0 10 0
0.5900 0.2272 0.0128 0 0 10 0
0.5900 0.2272 0.0128 0 0 10 0
0.5820 0.2269 0.0109 0 0 10 0
0.5820 0.2269 0.0109 0 0 10 0
0.6040 0.2268 0.0141 0 0 10 0
0.5900 0.2264 0.0139 0 0 10 0
0.5900 0.2264 0.0139 0 0 10 0
0.5860 0.2253 0.0112 0 0 10 0
0.5680 0.2248 0.0117 0 0 10 0
0.5940 0.2246 0.0120 0 0 10 0
0.5940 0.2246 0.0120 0 0 10 0
0.5680 0.2237 0.0086 0 0 10 0
0.5680 0.2237 0.0086 0 0 10 0
0.5840 0.2235 0.0090 0 0 10 0
0.5900 0.2228 0.0112 0 0 10 0
0.6000 0.2222 0.0080 0 0 10 0
0.5880 0.2218 0.0075 0 0 10 0
0.5880 0.2218 0.0075 0 0 10 0
0.5860 0.2213 0.0070 0 0 10 0
0.5940 0.2209 0.0071 0 0 10 0
0.5760 0.2201 0.0084 0 0 10 0
0.5760 0.2201 0.0084 0 0 10 0
0.5880 0.2196 0.0087 0 0 10 0
0.6040 0.2196 0.0087 0 0 10 0
0.5840 0.2195 0.0089 0 0 10 0
0.5940 0.2195 0.0106 0 0 10 0
0.5960 0.2188 0.0109 0 0 10 0
0.5940 0.2187 0.0110 0 0 10 0
0.5940 0.2187 0.0110 0 0 10 0
0.5900 0.2179 0.0117 0 0 10 0
0.5540 0.2174 0.0120 0 0 10 0
0.5600 0.2171 0.0119 0 0 10 0
0.5840 0.2171 0.0143 0 0 10 0
0.5740 0.2169 0.0148 0 0 10 0
0.5860 0.2163 0.0134 0 0 10 0
0.5860 0.2160 0.0151 0 0 10 0
0.5880 0.2155 0.0161 0 0 10 0
0.5880 0.2155 0.0161 0 0 10 0
0.5820 0.2150 0.0154 0 0 10 0
0.5740 0.2139 0.0147 0 0 10 0
0.5840 0.2139 0.0154 0 0 10 0
0.5980 0.2136 0.0159 0 0 10 0
0.5980 0.2136 0.0159 0 0 10 0
0.6040 0.2138 0.0144 0 0 10 0
0.5840 0.2132 0.0156 0 0 10 0
0.5840 0.2132 0.0156 0 0 10 0
0.5920 0.2123 0.0171 0 0 10 0
0.5900 0.2115 0.0165 0 0 10 0
0.5860 0.2108 0.0180 0 0 10 0
0.5860 0.2108 0.0180 0 0 10 0
0.5760 0.2101 0.0178 0 0 10 0
0.5760 0.2101 0.0178 0 0 10 0
0.5760 0.2100 0.0181 0 0 10 0
0.5920 0.2098 0.0201 0 0 10 0
0.5900 0.2098 0.0205 0 0 10 0
0.5700 0.2089 0.0209 0 0 10 0
0.5700 0.2089 0.0209 0 0 10 0
0.5820 0.2086 0.0212 0 0 10 0
0.5980 0.2076 0.0223 0 0 10 0
0.5820 0.2069 0.0221 0 0 10 0
0.5780 0.2067 0.0212 0 0 10 0
0.5780 0.2067 0.0212 0 0 10 0
0.5940 0.2069 0.0210 0 0 10 0
0.6000 0.2064 0.0184 0 0 10 0
0.5500 0.2061 0.0187 0 0 10 0
0.5800 0.2054 0.0192 0 0 10 0
0.5800 0.2045 0.0178 0 0 10 0
0.5540 0.2036 0.0163 0 0 10 0
0.5540 0.2036 0.0163 0 0 10 0
0.5740 0.2028 0.0148 0 0 10 0
0.5960 0.2025 0.0157 0 0 10 0
0.5800 0.2023 0.0166 0 0 10 0
0.5800 0.2023 0.0166 0 0 10 0
0.6020 0.2016 0.0151 0 0 10 0
0.5920 0.2009 0.0152 0 0 10 0
0.5780 0.2007 0.0153 0 0 10 0
0.5700 0.2002 0.0150 0 0 10 0
0.5840 0.2000 0.0137 0 0 10 0
0.5940 0.1999 0.0131 0 0 10 0
0.5940 0.1999 0.0131 0 0 10 0
0.5700 0.1996 0.0130 0 0 10 0
0.5920 0.1992 0.0152 0 0 10 0
0.5980 0.1985 0.0156 0 0 10 0
0.5860 0.1975 0.0165 0 0 10 0
0.5840 0.1974 0.0167 0 0 10 0
0.5720 0.1970 0.0156 0 0 10 0
0.5720 0.1970 0.0156 0 0 10 0
0.6080 0.1966 0.0153 0 0 10 0
0.5980 0.1959 0.0164 0 0 10 0
0.5920 0.1953 0.0146 0 0 10 0
0.5920 0.1953 0.0146 0 0 10 0
0.5900 0.1949 0.0149 0 0 10 0
0.5880 0.1946 0.0155 0 0 10 0
0.5860 0.1942 0.0160 0 0 10 0
0.5960 0.1938 0.0134 0 0 10 0
0.5900 0.1930 0.0131 0 0 10 0
0.5900 0.1922 0.0121 0 0 10 0
0.5920 0.1922 0.0121 0 0 10 0
0.5840 0.1914 0.0085 0 0 10 0
0.5840 0.1914 0.0085 0 0 10 0
0.6040 0.1912 0.0086 0 0 10 0
0.5780 0.1912 0.0052 0 0 10 0
0.5720 0.1907 0.0039 0 0 10 0
0.5880 0.1901 0.0035 0 0 10 0
0.5880 0.1901 0.0035 0 0 10 0
0.5820 0.1890 0.0030 0 0 10 0
0.5820 0.1890 0.0030 0 0 10 0
0.5900 0.1877 -0.0005 0 0 10 0
0.5860 0.1869 -0.0003 0 0 10 0
0.5800 0.1867 0.0011 0 0 10 0
0.5800 0.1867 0.0011 0 0 10 0
0.5960 0.1864 0.0011 0 0 10 0
0.5800 0.1868 0.0021 0 0 10 0
0.5900 0.1865 0.0039 0 0 10 0
0.5920 0.1861 0.0050 0 0 10 0
0.5920 0.1856 0.0049 0 0 10 0
0.5920 0.1856 0.0049 0 0 10 0
0.5960 0.1854 0.0058 0 0 10 0
0.5980 0.1857 0.0078 0 0 10 0
0.5780 0.1859 0.0088 0 0 10 0
0.5620 0.1857 0.0056 0 0 10 0
0.5620 0.1854 0.0050 0 0 10 0
0.5720 0.1854 0.0050 0 0 10 0
0.5780 0.1847 0.0054 0 0 10 0
0.5800 0.1844 0.0060 0 0 10 0
0.5880 0.1843 0.0066 0 0 10 0
0.5780 0.1840 0.0071 0 0 10 0
0.5780 0.1840 0.0071 0 0 10 0
0.6020 0.1837 0.0099 0 0 10 0
0.5940 0.1835 0.0092 0 0 10 0
0.5960 0.1830 0.0074 0 0 10 0
0.6100 0.1822 0.0096 0 0 10 0
0.6100 0.1822 0.0096 0 0 10 0
0.6000 0.1816 0.0091 0 0 10 0
0.5920 0.1808 0.0091 0 0 10 0
0.5760 0.1801 0.0113 0 0 10 0
0.5580 0.1794 0.0112 0 0 10 0
0.5720 0.1788 0.0101 0 0 10 0
0.5720 0.1788 0.0101 0 0 10 0
0.5960 0.1783 0.0089 0 0 10 0
0.5900 0.1781 0.0092 0 0 10 0
0.5920 0.1777 0.0063 0 0 10 0
0.6020 0.1775 0.0045 0 0 10 0
0.6020 0.1775 0.0045 0 0 10 0
0.5980 0.1769 0.0045 0 0 10 0
0.5960 0.1770 0.0025 0 0 10 0
0.5960 0.1770 0.0025 0 0 10 0
0.6000 0.1773 0.0034 0 0 10 0
0.5740 0.1767 0.0046 0 0 10 0
0.5980 0.1763 0.0050 0 0 10 0
0.5820 0.1755 0.0058 0 0 10 0
0.5820 0.1746 0.0061 0 0 10 0
0.5820 0.1746 0.0061 0 0 10 0
0.5940 0.1738 0.0044 0 0 10 0
0.5940 0.1735 0.0045 0 0 10 0
0.5860 0.1733 0.0033 0 0 10 0
0.5920 0.1728 0.0036 0 0 10 0
0.5700 0.1725 0.0029 0 0 10 0
0.5700 0.1725 0.0029 0 0 10 0
0.5920 0.1724 0.0034 0 0 10 0
0.5860 0.1717 0.0038 0 0 10 0
0.6140 0.1711 0.0043 0 0 10 0
0.5780 0.1698 0.0041 0 0 10 0
0.5780 0.1698 0.0041 0 0 10 0
0.5680 0.1695 0.0051 0 0 10 0
0.6060 0.1686 0.0028 0 0 10 0
0.5920 0.1683 0.0016 0 0 10 0
0.5920 0.1680 0.0019 0 0 10 0
0.5840 0.1673 0.0013 0 0 10 0
0.5840 0.1673 0.0013 0 0 10 0
0.5880 0.1667 0.0028 0 0 10 0
0.6000 0.1659 0.0038 0 0 10 0
0.6300 0.1654 0.0040 0 0 10 0
0.6240 0.1647 0.0047 0 0 10 0
0.6240 0.1647 0.0047 0 0 10 0
0.6000 0.1641 0.0074 0 0 10 0
0.6080 0.1644 0.0078 0 0 10 0
0.6080 0.1645 0.0087 0 0 10 0
0.6080 0.1645 0.0087 0 0 10 0
0.5980 0.1640 0.0120 0 0 10 0
0.6160 0.1636 0.0122 0 0 10 0
0.6240 0.1635 0.0107 0 0 10 0
0.6060 0.1630 0.0089 0 0 10 0
0.6020 0.1626 0.0093 0 0 10 0
0.5980 0.1621 0.0092 0 0 10 0
0.5980 0.1621 0.0092 0 0 10 0
0.6120 0.1615 0.0067 0 0 10 0
0.6000 0.1611 0.0070 0 0 10 0
0.5940 0.1606 0.0060 0 0 10 0
0.5880 0.1603 0.0063 0 0 10 0
0.6160 0.1600 0.0072 0 0 10 0
0.6140 0.1595 0.0077 0 0 10 0
0.6140 0.1595 0.0077 0 0 10 0
0.6040 0.1583 0.0073 0 0 10 0
0.6340 0.1580 0.0056 0 0 10 0
0.5980 0.1573 0.0032 0 0 10 0
0.5980 0.1568 0.0050 0 0 10 0
0.6200 0.1566 0.0030 0 0 10 0
0.6140 0.1560 0.0031 0 0 10 0
0.6140 0.1560 0.0031 0 0 10 0
0.6200 0.1550 0.0032 0 0 10 0
0.6060 0.1542 0.0055 0 0 10 0
0.6140 0.1541 0.0071 0 0 10 0
0.6140 0.1541 0.0071 0 0 10 0
0.6140 0.1528 0.0092 0 0 10 0
0.6140 0.1528 0.0092 0 0 10 0
0.6120 0.1523 0.0093 0 0 10 0
0.6020 0.1520 0.0097 0 0 10 0
0.6080 0.1520 0.0077 0 0 10 0
0.6180 0.1520 0.0073 0 0 10 0
0.6080 0.1509 0.0037 0 0 10 0
0.6080 0.1509 0.0037 0 0 10 0
0.5900 0.1502 0.0036 0 0 10 0
0.6220 0.1492 0.0029 0 0 10 0
0.6140 0.1488 0.0030 0 0 10 0
0.6120 0.1487 -0.0007 0 0 10 0
0.6120 0.1487 -0.0007 0 0 10 0
0.6120 0.1485 -0.0012 0 0 10 0
0.6120 0.1486 0.0007 0 0 10 0
0.6320 0.1486 0.0011 0 0 10 0
0.6120 0.1477 0.0037 0 0 10 0
0.6180 0.1475 0.0039 0 0 10 0
0.6180 0.1472 0.0068 0 0 10 0
0.6240 0.1472 0.0075 0 0 10 0
0.6260 0.1469 0.0075 0 0 10 0
0.6280 0.1466 0.0067 0 0 10 0
0.6280 0.1466 0.0067 0 0 10 0
0.6100 0.1450 0.0073 0 0 10 0
0.6100 0.1450 0.0073 0 0 10 0
0.6200 0.1439 0.0075 0 0 10 0
0.6100 0.1433 0.0111 0 0 10 0
0.6080 0.1428 0.0111 0 0 10 0
0.6080 0.1428 0.0111 0 0 10 0
0.6080 0.1427 0.0128 0 0 10 0
0.6100 0.1425 0.0135 0 0 10 0
0.6120 0.1424 0.0150 0 0 10 0
0.6120 0.1424 0.0150 0 0 10 0
0.6180 0.1416 0.0130 0 0 10 0
0.6180 0.1416 0.0130 0 0 10 0
0.6200 0.1412 0.0137 0 0 10 0
0.6200 0.1412 0.0137 0 0 10 0
0.6180 0.1413 0.0126 0 0 10 0
0.6180 0.1413 0.0126 0 0 10 0
0.6520 0.1411 0.0114 0 0 10 0
0.6300 0.1409 0.0107 0 0 10 0
0.6280 0.1401 0.0096 0 0 10 0
0.6260 0.1395 0.0090 0 0 10 0
0.6240 0.1387 0.0104 0 0 10 0
0.6200 0.1387 0.0103 0 0 10 0
0.6200 0.1387 0.0103 0 0 10 0
0.5880 0.1391 0.0027 0 0 10 0
0.6460 0.1390 0.0003 0 0 10 0
0.6480 0.1386 0.0012 0 0 10 0
0.6120 0.1369 -0.0048 0 0 10 0
0.6260 0.1358 -0.0046 0 0 10 0
0.6220 0.1354 -0.0039 0 0 10 0
0.6220 0.1354 -0.0039 0 0 10 0
0.6220 0.1354 -0.0036 0 0 10 0
0.6280 0.1356 -0.0047 0 0 10 0
0.6280 0.1356 -0.0047 0 0 10 0
0.6140 0.1347 0.0018 0 0 10 0
0.6320 0.1340 0.0024 0 0 10 0
0.6300 0.1333 0.0023 0 0 10 0
0.6300 0.1330 0.0011 0 0 10 0
0.6080 0.1330 0.0011 0 0 10 0
0.6200 0.1331 0.0019 0 0 10 0
0.6360 0.1332 0.0027 0 0 10 0
0.6160 0.1326 0.0023 0 0 10 0
0.5980 0.1322 0.0026 0 0 10 0
0.6300 0.1317 0.0042 0 0 10 0
0.6060 0.1308 0.0055 0 0 10 0
0.6060 0.1308 0.0055 0 0 10 0
0.6040 0.1303 0.0062 0 0 10 0
0.6280 0.1305 0.0085 0 0 10 0
0.6240 0.1302 0.0086 0 0 10 0
0.6240 0.1302 0.0086 0 0 10 0
0.6300 0.1292 0.0068 0 0 10 0
0.6300 0.1292 0.0068 0 0 10 0
0.5880 0.1284 0.0090 0 0 10 0
0.5920 0.1276 0.0092 0 0 10 0
0.6240 0.1269 0.0040 0 0 10 0
0.6240 0.1269 0.0040 0 0 10 0
0.6120 0.1266 -0.0002 0 0 10 0
0.6400 0.1262 0.0008 0 0 10 0
0.6220 0.1263 -0.0025 0 0 10 0
0.6240 0.1263 -0.0020 0 0 10 0
0.6060 0.1256 -0.0011 0 0 10 0
0.6200 0.1247 0.0023 0 0 10 0
0.6120 0.1245 0.0041 0 0 10 0
0.6220 0.1240 0.0050 0 0 10 0
0.6120 0.1232 0.0074 0 0 10 0
0.6120 0.1232 0.0074 0 0 10 0
0.6280 0.1225 0.0089 0 0 10 0
0.6180 0.1218 0.0086 0 0 10 0
0.6240 0.1216 0.0107 0 0 10 0
0.6200 0.1216 0.0108 0 0 10 0
0.6220 0.1215 0.0112 0 0 10 0
0.6300 0.1212 0.0076 0 0 10 0
0.6300 0.1212 0.0076 0 0 10 0
0.6100 0.1213 0.0077 0 0 10 0
0.6160 0.1209 0.0086 0 0 10 0
0.6480 0.1199 0.0067 0 0 10 0
0.6300 0.1194 0.0078 0 0 10 0
0.6300 0.1194 0.0078 0 0 10 0
0.6460 0.1189 0.0090 0 0 10 0
0.6420 0.1186 0.0095 0 0 10 0
0.6200 0.1177 0.0146 0 0 10 0
0.6200 0.1174 0.0154 0 0 10 0
0.6200 0.1174 0.0154 0 0 10 0
0.6200 0.1167 0.0164 0 0 10 0
0.6220 0.1159 0.0170 0 0 10 0
0.6460 0.1154 0.0194 0 0 10 0
0.6460 0.1154 0.0194 0 0 10 0
0.6260 0.1150 0.0202 0 0 10 0
0.6280 0.1150 0.0183 0 0 10 0
0.6400 0.1145 0.0190 0 0 10 0
0.6420 0.1145 0.0193 0 0 10 0
0.6260 0.1143 0.0186 0 0 10 0
0.6360 0.1140 0.0208 0 0 10 0
0.6660 0.1138 0.0205 0 0 10 0
0.6660 0.1138 0.0205 0 0 10 0
0.6480 0.1133 0.0218 0 0 10 0
0.6220 0.1134 0.0213 0 0 10 0
0.6400 0.1128 0.0204 0 0 10 0
0.6340 0.1123 0.0208 0 0 10 0
0.6340 0.1123 0.0208 0 0 10 0
0.6340 0.1113 0.0192 0 0 10 0
0.6360 0.1108 0.0175 0 0 10 0
0.6360 0.1104 0.0177 0 0 10 0
0.6320 0.1099 0.0173 0 0 10 0
0.6320 0.1099 0.0173 0 0 10 0
0.6240 0.1097 0.0177 0 0 10 0
0.6320 0.1094 0.0195 0 0 10 0
0.6220 0.1090 0.0195 0 0 10 0
0.6380 0.1083 0.0206 0 0 10 0
0.6360 0.1077 0.0184 0 0 10 0
0.6180 0.1076 0.0184 0 0 10 0
0.6180 0.1076 0.0184 0 0 10 0
0.6300 0.1076 0.0204 0 0 10 0
0.6220 0.1069 0.0216 0 0 10 0
0.6240 0.1062 0.0174 0 0 10 0
0.6220 0.1056 0.0171 0 0 10 0
0.6400 0.1047 0.0175 0 0 10 0
0.6180 0.1046 0.0177 0 0 10 0
0.6180 0.1046 0.0177 0 0 10 0
0.6220 0.1043 0.0164 0 0 10 0
0.6420 0.1037 0.0184 0 0 10 0
0.6080 0.1034 0.0185 0 0 10 0
0.6080 0.1028 0.0184 0 0 10 0
0.6380 0.1028 0.0160 0 0 10 0
0.6380 0.1028 0.0160 0 0 10 0
0.6400 0.1025 0.0157 0 0 10 0
0.6320 0.1019 0.0151 0 0 10 0
0.6340 0.1011 0.0139 0 0 10 0
0.6340 0.1011 0.0139 0 0 10 0
0.6420 0.1005 0.0150 0 0 10 0
0.6240 0.1005 0.0146 0 0 10 0
0.6440 0.1002 0.0123 0 0 10 0
0.6600 0.0992 0.0128 0 0 10 0
0.6460 0.0984 0.0143 0 0 10 0
0.6260 0.0977 0.0143 0 0 10 0
0.6260 0.0977 0.0143 0 0 10 0
0.6320 0.0965 0.0134 0 0 10 0
0.6240 0.0959 0.0128 0 0 10 0
0.6300 0.0954 0.0119 0 0 10 0
0.6300 0.0954 0.0119 0 0 10 0
0.6280 0.0949 0.0124 0 0 10 0
0.6460 0.0949 0.0119 0 0 10 0
0.6480 0.0947 0.0132 0 0 10 0
0.6560 0.0943 0.0136 0 0 10 0
0.6400 0.0941 0.0135 0 0 10 0
0.6400 0.0941 0.0135 0 0 10 0
0.6420 0.0935 0.0100 0 0 10 0
0.6520 0.0927 0.0069 0 0 10 0
0.6280 0.0924 0.0040 0 0 10 0
0.6540 0.0923 0.0051 0 0 10 0
0.6580 0.0922 0.0054 0 0 10 0
0.6500 0.0916 0.0060 0 0 10 0
0.6500 0.0916 0.0060 0 0 10 0
0.6540 0.0907 0.0069 0 0 10 0
0.6520 0.0903 0.0070 0 0 10 0
0.6420 0.0899 0.0078 0 0 10 0
0.6480 0.0891 0.0067 0 0 10 0
0.6480 0.0890 0.0071 0 0 10 0
0.6480 0.0890 0.0071 0 0 10 0
0.6440 0.0884 0.0076 0 0 10 0
0.6440 0.0884 0.0076 0 0 10 0
0.6460 0.0885 0.0081 0 0 10 0
0.6600 0.0887 0.0081 0 0 10 0
0.6600 0.0887 0.0081 0 0 10 0
0.6860 0.0889 0.0059 0 0 10 0
0.6680 0.0887 0.0059 0 0 10 0
0.6840 0.0878 0.0036 0 0 10 0
0.6800 0.0871 0.0038 0 0 10 0
0.6620 0.0864 0.0050 0 0 10 0
0.6620 0.0864 0.0050 0 0 10 0
0.6540 0.0860 0.0050 0 0 10 0
0.6800 0.0863 0.0085 0 0 10 0
0.6500 0.0860 0.0098 0 0 10 0
0.6760 0.0854 0.0071 0 0 10 0
0.6860 0.0837 0.0065 0 0 10 0
0.6860 0.0837 0.0065 0 0 10 0
0.6680 0.0831 0.0081 0 0 10 0
0.6640 0.0824 0.0094 0 0 10 0
0.6840 0.0819 0.0095 0 0 10 0
0.6760 0.0809 0.0096 0 0 10 0
0.6440 0.0804 0.0103 0 0 10 0
0.6720 0.0801 0.0107 0 0 10 0
0.6580 0.0796 0.0079 0 0 10 0
0.6580 0.0796 0.0079 0 0 10 0
0.6820 0.0794 0.0082 0 0 10 0
0.6700 0.0797 0.0110 0 0 10 0
0.6580 0.0798 0.0100 0 0 10 0
0.6580 0.0798 0.0100 0 0 10 0
0.6580 0.0792 0.0076 0 0 10 0
0.6580 0.0792 0.0076 0 0 10 0
0.6500 0.0782 0.0076 0 0 10 0
0.6520 0.0774 0.0086 0 0 10 0
0.6800 0.0766 0.0081 0 0 10 0
0.6800 0.0770 0.0089 0 0 10 0
0.6660 0.0770 0.0089 0 0 10 0
0.6820 0.0774 0.0051 0 0 10 0
0.6820 0.0774 0.0051 0 0 10 0
0.6620 0.0774 0.0048 0 0 10 0
0.6880 0.0773 0.0054 0 0 10 0
0.6560 0.0770 0.0048 0 0 10 0
0.6720 0.0759 0.0038 0 0 10 0
0.6720 0.0759 0.0038 0 0 10 0
0.6700 0.0749 0.0042 0 0 10 0
0.6640 0.0744 0.0044 0 0 10 0
0.6540 0.0736 0.0023 0 0 10 0
0.6720 0.0732 0.0049 0 0 10 0
0.6840 0.0727 0.0046 0 0 10 0
0.6720 0.0730 0.0065 0 0 10 0
0.6720 0.0730 0.0065 0 0 10 0
0.6440 0.0725 0.0068 0 0 10 0
0.6560 0.0725 0.0068 0 0 10 0
0.6660 0.0714 0.0067 0 0 10 0
0.6500 0.0709 0.0063 0 0 10 0
0.6600 0.0704 0.0035 0 0 10 0
0.6600 0.0704 0.0035 0 0 10 0
0.6720 0.0700 0.0052 0 0 10 0
0.6980 0.0698 0.0049 0 0 10 0
0.6640 0.0697 0.0025 0 0 10 0
0.6800 0.0697 -0.0001 0 0 10 0
0.6800 0.0697 -0.0001 0 0 10 0
0.6840 0.0683 0.0001 0 0 10 0
0.6660 0.0683 0.0001 0 0 10 0
0.6640 0.0676 -0.0030 0 0 10 0
0.6680 0.0666 -0.0032 0 0 10 0
0.6740 0.0656 -0.0003 0 0 10 0
0.6740 0.0656 -0.0003 0 0 10 0
0.6940 0.0653 -0.0004 0 0 10 0
0.6660 0.0650 -0.0043 0 0 10 0
0.6780 0.0633 -0.0055 0 0 10 0
0.6660 0.0629 -0.0051 0 0 10 0
0.6680 0.0625 -0.0028 0 0 10 0
0.6680 0.0625 -0.0028 0 0 10 0
0.6700 0.0620 -0.0023 0 0 10 0
0.6700 0.0619 -0.0028 0 0 10 0
0.6800 0.0616 -0.0025 0 0 10 0
0.6820 0.0616 -0.0016 0 0 10 0
0.6820 0.0612 0.0005 0 0 10 0
0.6740 0.0612 0.0006 0 0 10 0
0.6680 0.0606 -0.0026 0 0 10 0
0.6860 0.0602 -0.0047 0 0 10 0
0.6840 0.0596 -0.0024 0 0 10 0
0.6780 0.0593 0.0004 0 0 10 0
0.6780 0.0593 0.0004 0 0 10 0
0.6900 0.0592 -0.0005 0 0 10 0
0.6780 0.0588 -0.0004 0 0 10 0
0.6900 0.0586 0.0019 0 0 10 0
0.6900 0.0586 0.0019 0 0 10 0
0.7060 0.0581 0.0004 0 0 10 0
0.6780 0.0577 -0.0012 0 0 10 0
0.6880 0.0568 0.0016 0 0 10 0
0.6760 0.0565 0.0019 0 0 10 0
0.6620 0.0564 0.0026 0 0 10 0
0.6680 0.0559 0.0027 0 0 10 0
0.6640 0.0554 -0.0003 0 0 10 0
0.6960 0.0550 0.0002 0 0 10 0
0.6960 0.0550 0.0002 0 0 10 0
0.7000 0.0548 -0.0035 0 0 10 0
0.6900 0.0543 -0.0027 0 0 10 0
0.6860 0.0539 -0.0042 0 0 10 0
0.6860 0.0539 -0.0042 0 0 10 0
0.6760 0.0538 -0.0033 0 0 10 0
0.7000 0.0538 -0.0043 0 0 10 0
0.7260 0.0531 -0.0034 0 0 10 0
0.7260 0.0531 -0.0034 0 0 10 0
0.7120 0.0520 0.0014 0 0 10 0
0.7360 0.0514 0.0031 0 0 10 0
0.7360 0.0514 0.0031 0 0 10 0
0.7000 0.0510 0.0066 0 0 10 0
0.6920 0.0511 0.0071 0 0 10 0
0.6980 0.0509 0.0084 0 0 10 0
0.7160 0.0507 0.0088 0 0 10 0
0.7140 0.0502 0.0120 0 0 10 0
0.7140 0.0502 0.0120 0 0 10 0
0.7020 0.0497 0.0147 0 0 10 0
0.6840 0.0495 0.0111 0 0 10 0
0.7020 0.0494 0.0100 0 0 10 0
0.7140 0.0494 0.0120 0 0 10 0
0.6840 0.0490 0.0110 0 0 10 0
0.6840 0.0490 0.0110 0 0 10 0
0.7180 0.0487 0.0105 0 0 10 0
0.7100 0.0479 0.0104 0 0 10 0
0.6960 0.0475 0.0126 0 0 10 0
0.6900 0.0465 0.0105 0 0 10 0
0.7120 0.0461 0.0107 0 0 10 0
0.7160 0.0458 0.0105 0 0 10 0
0.7060 0.0454 0.0124 0 0 10 0
0.7160 0.0448 0.0103 0 0 10 0
0.7200 0.0440 0.0101 0 0 10 0
0.7200 0.0440 0.0101 0 0 10 0
0.6920 0.0438 0.0135 0 0 10 0
0.6940 0.0441 0.0133 0 0 10 0
0.6860 0.0438 0.0168 0 0 10 0
0.7040 0.0435 0.0170 0 0 10 0
0.7120 0.0429 0.0210 0 0 10 0
0.7120 0.0429 0.0210 0 0 10 0
0.7320 0.0425 0.0208 0 0 10 0
0.7400 0.0416 0.0208 0 0 10 0
0.7340 0.0412 0.0203 0 0 10 0
0.7020 0.0410 0.0207 0 0 10 0
0.7020 0.0410 0.0207 0 0 10 0
0.7140 0.0397 0.0197 0 0 10 0
0.7120 0.0393 0.0196 0 0 10 0
0.7120 0.0393 0.0196 0 0 10 0
0.7180 0.0382 0.0185 0 0 10 0
0.7180 0.0374 0.0216 0 0 10 0
0.7160 0.0374 0.0216 0 0 10 0
0.7080 0.0364 0.0241 0 0 10 0
0.7340 0.0363 0.0245 0 0 10 0
0.7340 0.0363 0.0245 0 0 10 0
0.7320 0.0364 0.0261 0 0 10 0
0.7360 0.0364 0.0261 0 0 10 0
0.7160 0.0364 0.0267 0 0 10 0
0.7180 0.0360 0.0256 0 0 10 0
0.7040 0.0355 0.0288 0 0 10 0
0.7040 0.0352 0.0283 0 0 10 0
0.7160 0.0352 0.0283 0 0 10 0
0.7260 0.0347 0.0277 0 0 10 0
0.7400 0.0346 0.0270 0 0 10 0
0.7220 0.0345 0.0262 0 0 10 0
0.7220 0.0341 0.0253 0 0 10 0
0.7420 0.0333 0.0220 0 0 10 0
0.7140 0.0333 0.0220 0 0 10 0
0.7140 0.0326 0.0219 0 0 10 0
0.7140 0.0323 0.0205 0 0 10 0
0.7280 0.0319 0.0195 0 0 10 0
0.7260 0.0318 0.0159 0 0 10 0
0.7340 0.0320 0.0154 0 0 10 0
0.7260 0.0317 0.0161 0 0 10 0
0.7220 0.0309 0.0155 0 0 10 0
0.7420 0.0304 0.0150 0 0 10 0
0.7720 0.0298 0.0155 0 0 10 0
0.7720 0.0298 0.0155 0 0 10 0
0.7500 0.0289 0.0153 0 0 10 0
0.7200 0.0280 0.0124 0 0 10 0
0.7200 0.0280 0.0124 0 0 10 0
0.7320 0.0276 0.0143 0 0 10 0
0.7320 0.0276 0.0143 0 0 10 0
0.7520 0.0269 0.0138 0 0 10 0
0.7520 0.0268 0.0134 0 0 10 0
0.7320 0.0268 0.0134 0 0 10 0
0.7380 0.0254 0.0170 0 0 10 0
0.7380 0.0254 0.0170 0 0 10 0
0.7460 0.0251 0.0155 0 0 10 0
0.7460 0.0250 0.0153 0 0 10 0
0.7320 0.0249 0.0145 0 0 10 0
0.7360 0.0247 0.0080 0 0 10 0
0.7360 0.0247 0.0080 0 0 10 0
0.7560 0.0235 0.0027 0 0 10 0
0.7560 0.0235 0.0027 0 0 10 0
0.7260 0.0220 0.0046 0 0 10 0
0.7160 0.0217 0.0054 0 0 10 0
0.7600 0.0214 0.0108 0 0 10 0
0.7600 0.0214 0.0108 0 0 10 0
0.7200 0.0211 0.0165 0 0 10 0
0.7200 0.0211 0.0165 0 0 10 0
0.7300 0.0207 0.0167 0 0 10 0
0.7440 0.0203 0.0188 0 0 10 0
0.7300 0.0202 0.0191 0 0 10 0
0.7300 0.0201 0.0186 0 0 10 0
0.7280 0.0201 0.0186 0 0 10 0
0.7520 0.0193 0.0191 0 0 10 0
0.7520 0.0193 0.0191 0 0 10 0
0.7160 0.0185 0.0180 0 0 10 0
0.7240 0.0178 0.0176 0 0 10 0
0.7520 0.0171 0.0182 0 0 10 0
0.7400 0.0167 0.0182 0 0 10 0
0.7400 0.0167 0.0182 0 0 10 0
0.7340 0.0158 0.0168 0 0 10 0
0.7300 0.0148 0.0173 0 0 10 0
0.7160 0.0148 0.0173 0 0 10 0
0.7220 0.0139 0.0165 0 0 10 0
0.7220 0.0139 0.0165 0 0 10 0
0.7320 0.0133 0.0184 0 0 10 0
0.7120 0.0129 0.0251 0 0 10 0
0.7120 0.0126 0.0217 0 0 10 0
0.7120 0.0126 0.0217 0 0 10 0
0.7200 0.0122 0.0203 0 0 10 0
0.7200 0.0122 0.0203 0 0 10 0
0.7100 0.0119 0.0130 0 0 10 0
0.7260 0.0117 0.0122 0 0 0 0
0.7400 0.0114 0.0104 0 0 10 0
0.7660 0.0096 0.0099 0 0 10 0
0.7420 0.0096 0.0097 0 0 10 0
0.7420 0.0089 0.0100 0 0 10 0
0.7300 0.0085 0.0126 0 0 10 0
0.7300 0.0085 0.0126 0 0 10 0
0.7540 0.0082 0.0125 0 0 10 0
0.7440 0.0079 0.0087 0 0 10 0
0.7380 0.0074 0.0089 0 0 10 0
0.7380 0.0074 0.0089 0 0 10 0
0.7580 0.0068 0.0061 0 0 10 0
0.7480 0.0068 0.0087 0 0 10 0
0.7480 0.0068 0.0087 0 0 10 0
0.7520 0.0063 0.0108 0 0 10 0
0.7320 0.0056 0.0128 0 0 10 0
0.7340 0.0053 0.0135 0 0 10 0
0.7280 0.0053 0.0135 0 0 10 0
0.7280 0.0053 0.0135 0 0 10 0
0.7360 0.0053 0.0140 0 0 10 0
0.7300 0.0051 0.0126 0 0 0 0
