0.5600 0.3141 0.0098 0 0 10 0
0.5580 0.3144 0.0118 0 0 10 0
0.5640 0.3157 0.0153 0 0 10 0
0.5380 0.3153 0.0131 0 0 10 0
0.5520 0.3153 0.0123 0 0 10 0
0.5360 0.3157 0.0120 0 0 10 0
0.5360 0.3157 0.0120 0 0 10 0
0.5420 0.3156 0.0118 0 0 10 0
0.5460 0.3157 0.0119 0 0 10 0
0.5440 0.3165 0.0135 0 0 10 0
0.5420 0.3172 0.0133 0 0 10 0
0.5480 0.3168 0.0126 0 0 10 0
0.5480 0.3168 0.0126 0 0 10 0
0.5620 0.3165 0.0124 0 0 10 0
0.5540 0.3154 0.0120 0 0 10 0
0.5440 0.3150 0.0113 0 0 10 0
0.5380 0.3144 0.0106 0 0 10 0
0.5520 0.3145 0.0102 0 0 10 0
0.5520 0.3145 0.0102 0 0 10 0
0.5380 0.3140 0.0112 0 0 10 0
0.5500 0.3136 0.0094 0 0 10 0
0.5560 0.3128 0.0083 0 0 10 0
0.5420 0.3118 0.0081 0 0 10 0
0.5360 0.3105 0.0046 0 0 10 0
0.5360 0.3105 0.0046 0 0 10 0
0.5520 0.3103 0.0048 0 0 10 0
0.5600 0.3102 0.0041 0 0 10 0
0.5480 0.3102 0.0041 0 0 10 0
0.5500 0.3103 0.0040 0 0 10 0
0.5520 0.3094 0.0086 0 0 10 0
0.5520 0.3094 0.0086 0 0 10 0
0.5440 0.3084 0.0084 0 0 10 0
0.5360 0.3077 0.0087 0 0 10 0
0.5420 0.3074 0.0090 0 0 10 0
0.5260 0.3074 0.0090 0 0 10 0
0.5260 0.3074 0.0090 0 0 10 0
0.5360 0.3073 0.0088 0 0 10 0
0.5420 0.3071 0.0088 0 0 10 0
0.5400 0.3064 0.0099 0 0 10 0
0.5520 0.3048 0.0100 0 0 10 0
0.5520 0.3048 0.0100 0 0 10 0
0.5620 0.3045 0.0109 0 0 10 0
0.5560 0.3043 0.0109 0 0 10 0
0.5520 0.3042 0.0116 0 0 10 0
0.5480 0.3037 0.0086 0 0 10 0
0.5480 0.3037 0.0086 0 0 10 0
0.5560 0.3035 0.0104 0 0 10 0
0.5640 0.3034 0.0104 0 0 10 0
0.5460 0.3024 0.0088 0 0 10 0
0.5540 0.3017 0.0081 0 0 10 0
0.5540 0.3009 0.0076 0 0 10 0
0.5540 0.3009 0.0076 0 0 10 0
0.5380 0.2998 0.0065 0 0 10 0
0.5500 0.2995 0.0076 0 0 10 0
0.5500 0.2995 0.0076 0 0 10 0
0.5500 0.2986 0.0076 0 0 10 0
0.5520 0.2977 0.0070 0 0 10 0
0.5520 0.2977 0.0070 0 0 10 0
0.5520 0.2971 0.0063 0 0 10 0
0.5360 0.2968 0.0060 0 0 10 0
0.5520 0.2966 0.0051 0 0 10 0
0.5520 0.2966 0.0051 0 0 10 0
0.5460 0.2963 0.0050 0 0 10 0
0.5420 0.2958 0.0061 0 0 10 0
0.5660 0.2958 0.0064 0 0 10 0
0.5660 0.2956 0.0058 0 0 10 0
0.5560 0.2953 0.0068 0 0 10 0
0.5700 0.2951 0.0077 0 0 10 0
0.5700 0.2951 0.0077 0 0 10 0
0.5540 0.2949 0.0069 0 0 10 0
0.5760 0.2948 0.0059 0 0 10 0
0.5380 0.2943 0.0073 0 0 10 0
0.5380 0.2943 0.0073 0 0 10 0
0.5400 0.2937 0.0060 0 0 10 0
0.5500 0.2936 0.0059 0 0 10 0
0.5500 0.2936 0.0059 0 0 10 0
0.5460 0.2933 0.0060 0 0 10 0
0.5460 0.2925 0.0032 0 0 10 0
0.5460 0.2925 0.0032 0 0 10 0
0.5480 0.2910 0.0017 0 0 10 0
0.5480 0.2910 0.0017 0 0 10 0
0.5480 0.2903 -0.0003 0 0 10 0
0.5680 0.2903 -0.0001 0 0 10 0
0.5380 0.2902 0.0031 0 0 10 0
0.5380 0.2902 0.0031 0 0 10 0
0.5500 0.2897 0.0029 0 0 10 0
0.5520 0.2897 0.0040 0 0 10 0
0.5560 0.2894 0.0036 0 0 10 0
0.5320 0.2892 0.0018 0 0 10 0
0.5320 0.2892 0.0018 0 0 10 0
0.5480 0.2890 -0.0027 0 0 10 0
0.5480 0.2890 -0.0027 0 0 10 0
0.5580 0.2888 -0.0025 0 0 10 0
0.5680 0.2882 0.0000 0 0 10 0
0.5480 0.2880 -0.0013 0 0 10 0
0.5480 0.2876 -0.0014 0 0 10 0
0.5480 0.2876 -0.0014 0 0 10 0
0.5460 0.2874 -0.0006 0 0 10 0
0.5600 0.2867 -0.0019 0 0 10 0
0.5340 0.2860 -0.0035 0 0 10 0
0.5600 0.2855 -0.0014 0 0 10 0
0.5600 0.2855 -0.0014 0 0 10 0
0.5400 0.2845 -0.0022 0 0 10 0
0.5460 0.2841 -0.0037 0 0 10 0
0.5440 0.2841 -0.0029 0 0 10 0
0.5440 0.2841 -0.0029 0 0 10 0
0.5480 0.2841 -0.0017 0 0 10 0
0.5600 0.2837 -0.0010 0 0 10 0
0.5400 0.2837 -0.0010 0 0 10 0
0.5460 0.2829 0.0009 0 0 10 0
0.5400 0.2828 0.0012 0 0 10 0
0.5660 0.2826 0.0017 0 0 10 0
0.5660 0.2826 0.0017 0 0 10 0
0.5420 0.2822 0.0009 0 0 10 0
0.5440 0.2816 -0.0008 0 0 10 0
0.5420 0.2804 -0.0006 0 0 10 0
0.5420 0.2801 -0.0039 0 0 10 0
0.5420 0.2801 -0.0039 0 0 10 0
0.5680 0.2799 -0.0032 0 0 10 0
0.5680 0.2799 -0.0032 0 0 10 0
0.5600 0.2791 -0.0029 0 0 10 0
0.5400 0.2786 -0.0018 0 0 10 0
0.5480 0.2780 -0.0014 0 0 10 0
0.5520 0.2773 -0.0038 0 0 10 0
0.5520 0.2770 -0.0037 0 0 10 0
0.5560 0.2773 -0.0061 0 0 10 0
0.5560 0.2773 -0.0061 0 0 10 0
0.5600 0.2774 -0.0063 0 0 10 0
0.5580 0.2778 -0.0052 0 0 10 0
0.5640 0.2774 -0.0046 0 0 10 0
0.5640 0.2763 -0.0054 0 0 10 0
0.5580 0.2763 -0.0054 0 0 10 0
0.5520 0.2742 -0.0047 0 0 10 0
0.5520 0.2742 -0.0047 0 0 10 0
0.5600 0.2736 -0.0038 0 0 10 0
0.5580 0.2735 -0.0026 0 0 10 0
0.5460 0.2738 -0.0026 0 0 10 0
0.5460 0.2732 -0.0006 0 0 10 0
0.5360 0.2732 -0.0006 0 0 10 0
0.5480 0.2710 -0.0010 0 0 10 0
0.5480 0.2710 -0.0010 0 0 10 0
0.5440 0.2705 -0.0037 0 0 10 0
0.5520 0.2704 -0.0036 0 0 10 0
0.5600 0.2707 -0.0017 0 0 10 0
0.5600 0.2707 -0.0017 0 0 10 0
0.5620 0.2709 0.0009 0 0 10 0
0.5480 0.2711 0.0008 0 0 10 0
0.5580 0.2706 0.0010 0 0 10 0
0.5280 0.2698 0.0009 0 0 10 0
0.5280 0.2689 0.0020 0 0 10 0
0.5480 0.2681 0.0018 0 0 10 0
0.5480 0.2681 0.0018 0 0 10 0
0.5720 0.2678 0.0007 0 0 10 0
0.5660 0.2679 0.0001 0 0 10 0
0.5580 0.2681 0.0019 0 0 10 0
0.5580 0.2681 0.0017 0 0 10 0
0.5540 0.2677 0.0007 0 0 10 0
0.5640 0.2668 0.0006 0 0 10 0
0.5640 0.2668 0.0006 0 0 10 0
0.5460 0.2665 0.0023 0 0 10 0
0.5700 0.2651 0.0041 0 0 10 0
0.5700 0.2651 0.0041 0 0 10 0
0.5620 0.2642 0.0062 0 0 10 0
0.5580 0.2639 0.0033 0 0 10 0
0.5680 0.2632 0.0014 0 0 10 0
0.5680 0.2632 0.0014 0 0 10 0
0.5560 0.2630 0.0025 0 0 10 0
0.5600 0.2631 0.0046 0 0 10 0
0.5580 0.2628 0.0052 0 0 10 0
0.5560 0.2627 0.0056 0 0 10 0
0.5440 0.2624 0.0071 0 0 10 0
0.5400 0.2617 0.0074 0 0 10 0
0.5540 0.2612 0.0107 0 0 10 0
0.5460 0.2606 0.0112 0 0 10 0
0.5460 0.2599 0.0121 0 0 10 0
0.5700 0.2599 0.0121 0 0 10 0
0.5800 0.2596 0.0121 0 0 10 0
0.5840 0.2588 0.0089 0 0 10 0
0.5840 0.2584 0.0104 0 0 10 0
0.5760 0.2584 0.0104 0 0 10 0
0.5780 0.2584 0.0103 0 0 10 0
0.5480 0.2582 0.0099 0 0 10 0
0.5580 0.2583 0.0096 0 0 10 0
0.5580 0.2583 0.0096 0 0 10 0
0.5700 0.2569 0.0084 0 0 10 0
0.5720 0.2569 0.0084 0 0 10 0
0.5780 0.2568 0.0078 0 0 10 0
0.5600 0.2563 0.0078 0 0 10 0
0.5560 0.2558 0.0095 0 0 10 0
0.5900 0.2556 0.0089 0 0 10 0
0.5640 0.2546 0.0116 0 0 10 0
0.5800 0.2537 0.0134 0 0 10 0
0.5660 0.2533 0.0142 0 0 10 0
0.5780 0.2529 0.0121 0 0 10 0
0.5540 0.2529 0.0126 0 0 10 0
0.5640 0.2528 0.0116 0 0 10 0
0.5560 0.2524 0.0112 0 0 10 0
0.5360 0.2520 0.0104 0 0 10 0
0.5360 0.2520 0.0104 0 0 10 0
0.5420 0.2518 0.0100 0 0 10 0
0.5540 0.2512 0.0084 0 0 10 0
0.5440 0.2510 0.0081 0 0 10 0
0.5600 0.2509 0.0081 0 0 10 0
0.5600 0.2509 0.0081 0 0 10 0
0.5500 0.2507 0.0093 0 0 10 0
0.5400 0.2509 0.0091 0 0 10 0
0.5540 0.2502 0.0107 0 0 10 0
0.5580 0.2494 0.0127 0 0 10 0
0.5600 0.2487 0.0126 0 0 10 0
0.5600 0.2487 0.0126 0 0 10 0
0.5620 0.2471 0.0114 0 0 10 0
0.5620 0.2471 0.0114 0 0 10 0
0.5740 0.2467 0.0119 0 0 10 0
0.5660 0.2460 0.0105 0 0 10 0
0.5680 0.2457 0.0077 0 0 10 0
0.5520 0.2459 0.0073 0 0 10 0
0.5540 0.2456 0.0060 0 0 10 0
0.5720 0.2452 0.0050 0 0 10 0
0.5520 0.2447 0.0042 0 0 10 0
0.5900 0.2441 0.0038 0 0 10 0
0.5660 0.2437 0.0059 0 0 10 0
0.5800 0.2429 0.0052 0 0 10 0
0.5780 0.2420 0.0052 0 0 10 0
0.5520 0.2416 0.0054 0 0 10 0
0.5800 0.2412 0.0055 0 0 10 0
0.5840 0.2402 0.0032 0 0 10 0
0.5780 0.2400 0.0025 0 0 10 0
0.5700 0.2402 0.0044 0 0 10 0
0.5700 0.2402 0.0044 0 0 10 0
0.5740 0.2400 -0.0017 0 0 10 0
0.5680 0.2397 -0.0048 0 0 10 0
0.5580 0.2396 -0.0053 0 0 10 0
0.5580 0.2390 -0.0048 0 0 10 0
0.5840 0.2384 -0.0027 0 0 10 0
0.5620 0.2387 0.0000 0 0 10 0
0.5620 0.2387 0.0000 0 0 10 0
0.5660 0.2378 0.0022 0 0 10 0
0.5880 0.2373 0.0033 0 0 10 0
0.5680 0.2367 0.0036 0 0 10 0
0.5620 0.2359 0.0047 0 0 10 0
0.5620 0.2359 0.0047 0 0 10 0
0.5460 0.2355 0.0045 0 0 10 0
0.5460 0.2351 0.0034 0 0 10 0
0.5880 0.2344 0.0035 0 0 10 0
0.5700 0.2341 0.0022 0 0 10 0
0.5700 0.2341 0.0022 0 0 10 0
0.5760 0.2335 0.0034 0 0 10 0
0.5760 0.2335 0.0034 0 0 10 0
0.5620 0.2328 0.0035 0 0 10 0
0.5840 0.2326 0.0065 0 0 10 0
0.5720 0.2325 0.0067 0 0 10 0
0.5720 0.2323 0.0046 0 0 10 0
0.5700 0.2323 0.0046 0 0 10 0
0.5700 0.2326 0.0054 0 0 10 0
0.5460 0.2327 0.0049 0 0 10 0
0.5680 0.2322 0.0022 0 0 10 0
0.5820 0.2315 0.0009 0 0 10 0
0.5760 0.2312 0.0016 0 0 10 0
0.5760 0.2311 0.0013 0 0 10 0
0.5800 0.2312 0.0003 0 0 10 0
0.5560 0.2310 0.0002 0 0 10 0
0.5780 0.2309 0.0014 0 0 10 0
0.5780 0.2303 0.0028 0 0 10 0
0.5740 0.2295 0.0041 0 0 10 0
0.5740 0.2295 0.0041 0 0 10 0
0.5820 0.2293 0.0060 0 0 10 0
0.5860 0.2292 0.0060 0 0 10 0
0.5780 0.2288 0.0045 0 0 10 0
0.5540 0.2281 0.0037 0 0 10 0
0.5540 0.2281 0.0037 0 0 10 0
0.5680 0.2275 0.0039 0 0 10 0
0.5680 0.2275 0.0039 0 0 10 0
0.5720 0.2275 0.0017 0 0 10 0
0.5860 0.2278 0.0018 0 0 10 0
0.5840 0.2271 0.0038 0 0 10 0
0.5840 0.2271 0.0038 0 0 10 0
0.5900 0.2260 0.0044 0 0 10 0
0.5940 0.2260 0.0044 0 0 10 0
0.5920 0.2251 0.0060 0 0 10 0
0.6020 0.2250 0.0028 0 0 10 0
0.5880 0.2248 0.0037 0 0 10 0
0.5880 0.2248 0.0037 0 0 10 0
0.5940 0.2236 0.0034 0 0 10 0
0.5940 0.2236 0.0034 0 0 10 0
0.5920 0.2226 0.0043 0 0 10 0
0.5740 0.2222 0.0061 0 0 10 0
0.5860 0.2217 0.0059 0 0 10 0
0.5920 0.2210 0.0045 0 0 10 0
0.5700 0.2203 0.0088 0 0 10 0
0.5700 0.2203 0.0088 0 0 10 0
0.5560 0.2201 0.0093 0 0 10 0
0.5680 0.2200 0.0094 0 0 10 0
0.5580 0.2196 0.0101 0 0 10 0
0.5640 0.2193 0.0119 0 0 10 0
0.5640 0.2193 0.0119 0 0 10 0
0.5720 0.2194 0.0124 0 0 10 0
0.5740 0.2174 0.0114 0 0 10 0
0.5740 0.2174 0.0114 0 0 10 0
0.5720 0.2169 0.0110 0 0 10 0
0.5700 0.2158 0.0083 0 0 10 0
0.5700 0.2158 0.0083 0 0 10 0
0.5740 0.2153 0.0063 0 0 10 0
0.5620 0.2158 0.0067 0 0 10 0
0.5840 0.2157 0.0047 0 0 10 0
0.5720 0.2154 0.0049 0 0 10 0
0.5720 0.2146 0.0084 0 0 10 0
0.5800 0.2139 0.0085 0 0 10 0
0.5800 0.2139 0.0085 0 0 10 0
0.5860 0.2132 0.0084 0 0 10 0
0.5940 0.2129 0.0095 0 0 10 0
0.5800 0.2130 0.0097 0 0 10 0
0.5800 0.2131 0.0087 0 0 10 0
0.5880 0.2129 0.0095 0 0 10 0
0.5880 0.2129 0.0095 0 0 10 0
0.5920 0.2122 0.0111 0 0 10 0
0.5820 0.2118 0.0114 0 0 10 0
0.6000 0.2111 0.0097 0 0 10 0
0.5980 0.2109 0.0094 0 0 10 0
0.5740 0.2104 0.0096 0 0 10 0
0.5800 0.2104 0.0089 0 0 10 0
0.5800 0.2104 0.0089 0 0 10 0
0.5880 0.2107 0.0087 0 0 10 0
0.5520 0.2100 0.0074 0 0 10 0
0.5820 0.2092 0.0083 0 0 10 0
0.5940 0.2086 0.0063 0 0 10 0
0.5720 0.2073 0.0054 0 0 10 0
0.5720 0.2073 0.0064 0 0 10 0
0.5640 0.2074 0.0064 0 0 10 0
0.5640 0.2074 0.0064 0 0 10 0
0.5840 0.2073 0.0063 0 0 10 0
0.5780 0.2068 0.0062 0 0 10 0
0.5780 0.2065 0.0085 0 0 10 0
0.5660 0.2063 0.0078 0 0 10 0
0.5680 0.2063 0.0069 0 0 10 0
0.5780 0.2059 0.0067 0 0 10 0
0.5780 0.2059 0.0067 0 0 10 0
0.5860 0.2055 0.0074 0 0 10 0
0.5720 0.2046 0.0070 0 0 10 0
0.5960 0.2040 0.0048 0 0 10 0
0.5880 0.2035 0.0051 0 0 10 0
0.5680 0.2032 0.0068 0 0 10 0
0.5680 0.2032 0.0068 0 0 10 0
0.5740 0.2032 0.0071 0 0 10 0
0.5800 0.2028 0.0092 0 0 10 0
0.5820 0.2022 0.0094 0 0 10 0
0.5740 0.2019 0.0101 0 0 10 0
0.5740 0.2019 0.0101 0 0 10 0
0.5760 0.2015 0.0121 0 0 10 0
0.5860 0.2017 0.0120 0 0 10 0
0.5860 0.2017 0.0120 0 0 10 0
0.5920 0.2006 0.0122 0 0 10 0
0.5660 0.1997 0.0128 0 0 10 0
0.5660 0.1997 0.0128 0 0 10 0
0.5620 0.1987 0.0136 0 0 10 0
0.5760 0.1984 0.0126 0 0 10 0
0.5640 0.1983 0.0116 0 0 10 0
0.5800 0.1978 0.0112 0 0 10 0
0.5700 0.1975 0.0104 0 0 10 0
0.5820 0.1969 0.0081 0 0 10 0
0.5900 0.1965 0.0073 0 0 10 0
0.5800 0.1964 0.0040 0 0 10 0
0.5800 0.1964 0.0040 0 0 10 0
0.5920 0.1964 0.0035 0 0 10 0
0.5800 0.1959 0.0043 0 0 10 0
0.5640 0.1951 0.0041 0 0 10 0
0.6140 0.1940 0.0077 0 0 10 0
0.5720 0.1928 0.0056 0 0 10 0
0.5900 0.1928 0.0051 0 0 10 0
0.5900 0.1928 0.0051 0 0 10 0
0.6040 0.1924 0.0045 0 0 10 0
0.5920 0.1920 0.0046 0 0 10 0
0.5820 0.1914 0.0035 0 0 10 0
0.5820 0.1914 0.0035 0 0 10 0
0.5920 0.1909 0.0026 0 0 10 0
0.5940 0.1907 0.0022 0 0 10 0
0.5700 0.1907 0.0023 0 0 10 0
0.5740 0.1899 0.0039 0 0 10 0
0.5760 0.1893 0.0066 0 0 10 0
0.5940 0.1888 0.0077 0 0 10 0
0.5880 0.1888 0.0067 0 0 10 0
0.5920 0.1886 0.0067 0 0 10 0
0.5860 0.1888 0.0070 0 0 10 0
0.6040 0.1888 0.0073 0 0 10 0
0.6160 0.1886 0.0062 0 0 10 0
0.6160 0.1886 0.0062 0 0 10 0
0.6060 0.1887 0.0030 0 0 10 0
0.5920 0.1886 0.0033 0 0 10 0
0.5860 0.1879 0.0051 0 0 10 0
0.5980 0.1874 0.0051 0 0 10 0
0.6120 0.1866 0.0044 0 0 10 0
0.6140 0.1862 0.0050 0 0 10 0
0.6080 0.1861 0.0042 0 0 10 0
0.6080 0.1861 0.0042 0 0 10 0
0.5740 0.1846 0.0068 0 0 10 0
0.6140 0.1840 0.0066 0 0 10 0
0.5980 0.1831 0.0055 0 0 10 0
0.5880 0.1827 0.0056 0 0 10 0
0.6080 0.1825 0.0059 0 0 10 0
0.6080 0.1825 0.0059 0 0 10 0
0.6040 0.1822 0.0056 0 0 10 0
0.6000 0.1824 0.0066 0 0 10 0
0.6020 0.1825 0.0068 0 0 10 0
0.6300 0.1822 0.0086 0 0 10 0
0.6220 0.1817 0.0090 0 0 10 0
0.6220 0.1817 0.0090 0 0 10 0
0.6000 0.1812 0.0112 0 0 10 0
0.6060 0.1805 0.0113 0 0 10 0
0.6140 0.1799 0.0112 0 0 10 0
0.6120 0.1794 0.0113 0 0 10 0
0.5840 0.1793 0.0113 0 0 10 0
0.6120 0.1793 0.0107 0 0 10 0
0.6020 0.1789 0.0109 0 0 10 0
0.5880 0.1787 0.0103 0 0 10 0
0.5880 0.1787 0.0103 0 0 10 0
0.6300 0.1783 0.0098 0 0 10 0
0.6140 0.1775 0.0109 0 0 10 0
0.5960 0.1772 0.0098 0 0 10 0
0.5980 0.1770 0.0097 0 0 10 0
0.6020 0.1767 0.0096 0 0 10 0
0.6020 0.1767 0.0096 0 0 10 0
0.6140 0.1759 0.0087 0 0 10 0
0.6120 0.1759 0.0087 0 0 10 0
0.6240 0.1747 0.0084 0 0 10 0
0.6180 0.1744 0.0090 0 0 10 0
0.6220 0.1745 0.0088 0 0 10 0
0.5900 0.1742 0.0031 0 0 10 0
0.5900 0.1742 0.0031 0 0 10 0
0.6120 0.1741 0.0029 0 0 10 0
0.6120 0.1741 0.0029 0 0 10 0
0.6120 0.1733 0.0024 0 0 10 0
0.5980 0.1732 0.0023 0 0 10 0
0.6000 0.1730 0.0020 0 0 10 0
0.6000 0.1730 0.0020 0 0 10 0
0.6280 0.1724 0.0030 0 0 10 0
0.6200 0.1717 0.0019 0 0 10 0
0.5960 0.1708 0.0011 0 0 10 0
0.6120 0.1703 0.0025 0 0 10 0
0.6120 0.1703 0.0025 0 0 10 0
0.6260 0.1697 0.0023 0 0 10 0
0.6260 0.1697 0.0023 0 0 10 0
0.6080 0.1691 0.0025 0 0 10 0
0.6220 0.1691 0.0042 0 0 10 0
0.6160 0.1683 0.0042 0 0 10 0
0.6040 0.1675 0.0053 0 0 10 0
0.6040 0.1675 0.0053 0 0 10 0
0.6120 0.1668 0.0077 0 0 10 0
0.6120 0.1668 0.0077 0 0 10 0
0.6200 0.1661 0.0087 0 0 10 0
0.5980 0.1658 0.0074 0 0 10 0
0.5920 0.1657 0.0089 0 0 10 0
0.6140 0.1651 0.0095 0 0 10 0
0.6140 0.1651 0.0095 0 0 10 0
0.6240 0.1646 0.0100 0 0 10 0
0.6140 0.1637 0.0099 0 0 10 0
0.6260 0.1635 0.0100 0 0 10 0
0.6260 0.1635 0.0100 0 0 10 0
0.6200 0.1631 0.0098 0 0 10 0
0.6200 0.1631 0.0098 0 0 10 0
0.6140 0.1626 0.0095 0 0 10 0
0.6160 0.1627 0.0110 0 0 10 0
0.6260 0.1627 0.0110 0 0 10 0
0.6260 0.1627 0.0110 0 0 10 0
0.6120 0.1626 0.0100 0 0 10 0
0.5980 0.1619 0.0096 0 0 10 0
0.6040 0.1606 0.0072 0 0 10 0
0.6040 0.1602 0.0071 0 0 10 0
0.6160 0.1597 0.0056 0 0 10 0
0.5960 0.1597 0.0056 0 0 10 0
0.6140 0.1594 0.0057 0 0 10 0
0.6220 0.1590 0.0060 0 0 10 0
0.6080 0.1579 0.0080 0 0 10 0
0.6260 0.1571 0.0102 0 0 10 0
0.6260 0.1571 0.0102 0 0 10 0
0.6280 0.1565 0.0102 0 0 10 0
0.6060 0.1563 0.0104 0 0 10 0
0.6060 0.1561 0.0105 0 0 10 0
0.6180 0.1559 0.0138 0 0 10 0
0.6000 0.1551 0.0161 0 0 10 0
0.6000 0.1547 0.0143 0 0 10 0
0.6180 0.1547 0.0143 0 0 10 0
0.6100 0.1543 0.0159 0 0 10 0
0.6140 0.1536 0.0130 0 0 10 0
0.6280 0.1534 0.0115 0 0 10 0
0.6280 0.1534 0.0115 0 0 10 0
0.6060 0.1528 0.0111 0 0 10 0
0.5980 0.1526 0.0124 0 0 10 0
0.6080 0.1523 0.0124 0 0 10 0
0.6080 0.1522 0.0098 0 0 10 0
0.6400 0.1521 0.0095 0 0 10 0
0.6400 0.1521 0.0095 0 0 10 0
0.6100 0.1516 0.0113 0 0 10 0
0.6180 0.1516 0.0108 0 0 10 0
0.6100 0.1501 0.0092 0 0 10 0
0.6220 0.1495 0.0088 0 0 10 0
0.5940 0.1492 0.0084 0 0 10 0
0.5940 0.1492 0.0084 0 0 10 0
0.6060 0.1486 0.0070 0 0 10 0
0.6380 0.1480 0.0078 0 0 10 0
0.6200 0.1480 0.0082 0 0 10 0
0.6020 0.1477 0.0063 0 0 10 0
0.6080 0.1474 0.0065 0 0 10 0
0.6080 0.1474 0.0065 0 0 10 0
0.5940 0.1468 0.0068 0 0 10 0
0.6240 0.1468 0.0067 0 0 10 0
0.6240 0.1468 0.0067 0 0 10 0
0.6220 0.1472 0.0025 0 0 10 0
0.6220 0.1472 0.0025 0 0 10 0
0.6200 0.1464 -0.0005 0 0 10 0
0.6180 0.1457 -0.0005 0 0 10 0
0.6240 0.1446 -0.0016 0 0 10 0
0.6280 0.1440 -0.0025 0 0 10 0
0.6300 0.1439 -0.0013 0 0 10 0
0.6260 0.1435 -0.0014 0 0 10 0
0.6260 0.1435 -0.0009 0 0 10 0
0.6160 0.1435 -0.0009 0 0 10 0
0.6080 0.1432 0.0033 0 0 10 0
0.6260 0.1432 0.0032 0 0 10 0
0.6120 0.1427 0.0039 0 0 10 0
0.6120 0.1427 0.0039 0 0 10 0
0.6240 0.1425 0.0036 0 0 10 0
0.6240 0.1421 0.0046 0 0 10 0
0.5900 0.1418 0.0045 0 0 10 0
0.6160 0.1412 0.0018 0 0 10 0
0.6320 0.1408 0.0019 0 0 10 0
0.6160 0.1403 0.0019 0 0 10 0
0.6160 0.1403 0.0019 0 0 10 0
0.6020 0.1395 0.0017 0 0 10 0
0.6260 0.1393 0.0008 0 0 10 0
0.5940 0.1388 0.0011 0 0 10 0
0.6260 0.1389 0.0029 0 0 10 0
0.6180 0.1386 0.0014 0 0 10 0
0.6320 0.1379 -0.0012 0 0 10 0
0.6240 0.1366 -0.0023 0 0 10 0
0.6260 0.1362 -0.0014 0 0 10 0
0.6200 0.1359 -0.0012 0 0 10 0
0.6200 0.1356 0.0008 0 0 10 0
0.6220 0.1353 0.0032 0 0 10 0
0.6220 0.1353 0.0032 0 0 10 0
0.6100 0.1347 0.0036 0 0 10 0
0.6360 0.1337 0.0065 0 0 10 0
0.6100 0.1332 0.0067 0 0 10 0
0.6220 0.1325 0.0077 0 0 10 0
0.6220 0.1325 0.0077 0 0 10 0
0.6240 0.1312 0.0071 0 0 10 0
0.6220 0.1308 0.0070 0 0 10 0
0.6220 0.1308 0.0070 0 0 10 0
0.6100 0.1306 0.0078 0 0 10 0
0.6380 0.1305 0.0071 0 0 10 0
0.6380 0.1305 0.0071 0 0 10 0
0.6020 0.1293 0.0050 0 0 10 0
0.6020 0.1288 0.0031 0 0 10 0
0.6300 0.1288 0.0031 0 0 10 0
0.6300 0.1281 0.0057 0 0 10 0
0.6400 0.1281 0.0056 0 0 10 0
0.6400 0.1281 0.0056 0 0 10 0
0.6380 0.1277 0.0064 0 0 10 0
0.6380 0.1277 0.0064 0 0 10 0
0.6320 0.1276 0.0092 0 0 10 0
0.6380 0.1264 0.0121 0 0 10 0
0.6060 0.1260 0.0118 0 0 10 0
0.6060 0.1260 0.0118 0 0 10 0
0.6160 0.1249 0.0098 0 0 10 0
0.6380 0.1240 0.0096 0 0 10 0
0.6380 0.1240 0.0096 0 0 10 0
0.6240 0.1238 0.0083 0 0 10 0
0.6320 0.1236 0.0082 0 0 10 0
0.6340 0.1231 0.0070 0 0 10 0
0.6340 0.1226 0.0068 0 0 10 0
0.6300 0.1221 0.0076 0 0 10 0
0.6300 0.1221 0.0076 0 0 10 0
0.6240 0.1214 0.0074 0 0 10 0
0.6260 0.1211 0.0067 0 0 10 0
0.6320 0.1208 0.0067 0 0 10 0
0.6300 0.1210 0.0086 0 0 10 0
0.6220 0.1206 0.0067 0 0 10 0
0.6360 0.1205 0.0067 0 0 10 0
0.6280 0.1197 0.0080 0 0 10 0
0.6200 0.1195 0.0056 0 0 10 0
0.6160 0.1194 0.0044 0 0 10 0
0.6160 0.1194 0.0044 0 0 10 0
0.6260 0.1191 0.0039 0 0 10 0
0.6040 0.1184 0.0037 0 0 10 0
0.6240 0.1182 0.0036 0 0 10 0
0.6180 0.1176 0.0026 0 0 10 0
0.6180 0.1176 0.0026 0 0 10 0
0.6160 0.1167 0.0056 0 0 10 0
0.6160 0.1167 0.0056 0 0 10 0
0.6240 0.1171 0.0054 0 0 10 0
0.6460 0.1169 0.0054 0 0 10 0
0.6340 0.1167 0.0048 0 0 10 0
0.6360 0.1158 0.0049 0 0 10 0
0.6120 0.1150 0.0028 0 0 10 0
0.6280 0.1142 0.0025 0 0 10 0
0.6280 0.1138 0.0037 0 0 10 0
0.6360 0.1136 0.0028 0 0 10 0
0.6300 0.1140 0.0007 0 0 10 0
0.6300 0.1140 0.0007 0 0 10 0
0.5920 0.1138 0.0017 0 0 10 0
0.6260 0.1128 -0.0020 0 0 10 0
0.6260 0.1118 -0.0036 0 0 10 0
0.6100 0.1118 -0.0036 0 0 10 0
0.6180 0.1113 -0.0032 0 0 10 0
0.6180 0.1113 -0.0032 0 0 10 0
0.6200 0.1113 -0.0062 0 0 10 0
0.6380 0.1102 -0.0036 0 0 10 0
0.6440 0.1100 -0.0027 0 0 10 0
0.6440 0.1100 -0.0027 0 0 10 0
0.6320 0.1087 -0.0050 0 0 10 0
0.6320 0.1087 -0.0050 0 0 10 0
0.6100 0.1079 -0.0043 0 0 10 0
0.6100 0.1071 -0.0043 0 0 10 0
0.6240 0.1067 -0.0060 0 0 10 0
0.6240 0.1067 -0.0060 0 0 10 0
0.6100 0.1061 -0.0033 0 0 10 0
0.6440 0.1063 -0.0031 0 0 10 0
0.6420 0.1061 -0.0036 0 0 10 0
0.6200 0.1059 -0.0051 0 0 10 0
0.6360 0.1059 -0.0060 0 0 10 0
0.6360 0.1059 -0.0060 0 0 10 0
0.6360 0.1051 -0.0058 0 0 10 0
0.6360 0.1049 -0.0057 0 0 10 0
0.6400 0.1043 -0.0044 0 0 10 0
0.6280 0.1042 -0.0041 0 0 10 0
0.6280 0.1042 -0.0041 0 0 10 0
0.6240 0.1036 -0.0063 0 0 10 0
0.6420 0.1028 -0.0064 0 0 10 0
0.6420 0.1028 -0.0054 0 0 10 0
0.6360 0.1026 -0.0063 0 0 10 0
0.6320 0.1026 -0.0063 0 0 10 0
0.6340 0.1022 -0.0061 0 0 10 0
0.6520 0.1013 -0.0049 0 0 10 0
0.6500 0.1003 -0.0051 0 0 10 0
0.6700 0.0999 -0.0057 0 0 10 0
0.6480 0.0995 -0.0057 0 0 10 0
0.6480 0.0995 -0.0057 0 0 10 0
0.6540 0.0993 -0.0060 0 0 10 0
0.6220 0.0987 -0.0071 0 0 10 0
0.6380 0.0977 -0.0065 0 0 10 0
0.6480 0.0970 -0.0066 0 0 10 0
0.6480 0.0964 -0.0074 0 0 10 0
0.6520 0.0962 -0.0063 0 0 10 0
0.6520 0.0962 -0.0063 0 0 10 0
0.6360 0.0963 -0.0061 0 0 10 0
0.6400 0.0959 -0.0063 0 0 10 0
0.6400 0.0953 -0.0055 0 0 10 0
0.6400 0.0945 -0.0076 0 0 10 0
0.6300 0.0945 -0.0076 0 0 10 0
0.6300 0.0942 -0.0066 0 0 10 0
0.6400 0.0939 -0.0069 0 0 10 0
0.6440 0.0942 -0.0090 0 0 10 0
0.6200 0.0928 -0.0074 0 0 10 0
0.5960 0.0919 -0.0082 0 0 10 0
0.5960 0.0919 -0.0082 0 0 10 0
0.6220 0.0913 -0.0083 0 0 10 0
0.6280 0.0910 -0.0088 0 0 10 0
0.6380 0.0911 -0.0081 0 0 10 0
0.6360 0.0910 -0.0080 0 0 10 0
0.6360 0.0910 -0.0080 0 0 10 0
0.6240 0.0909 -0.0072 0 0 10 0
0.6260 0.0908 -0.0067 0 0 10 0
0.6400 0.0893 -0.0089 0 0 10 0
0.6500 0.0886 -0.0085 0 0 10 0
0.6500 0.0886 -0.0085 0 0 10 0
0.6460 0.0887 -0.0076 0 0 10 0
0.6180 0.0885 -0.0080 0 0 10 0
0.6340 0.0885 -0.0045 0 0 10 0
0.6520 0.0885 -0.0043 0 0 10 0
0.6380 0.0883 -0.0068 0 0 10 0
0.6500 0.0884 -0.0079 0 0 10 0
0.6580 0.0879 -0.0072 0 0 10 0
0.6600 0.0880 0.0003 0 0 10 0
0.6600 0.0880 0.0003 0 0 10 0
0.6340 0.0877 -0.0031 0 0 10 0
0.6500 0.0874 -0.0040 0 0 10 0
0.6440 0.0867 -0.0032 0 0 10 0
0.6440 0.0867 -0.0032 0 0 10 0
0.6460 0.0858 -0.0047 0 0 10 0
0.6600 0.0854 -0.0043 0 0 10 0
0.6400 0.0852 -0.0036 0 0 10 0
0.6620 0.0844 -0.0020 0 0 10 0
0.6240 0.0841 -0.0018 0 0 10 0
0.6400 0.0839 -0.0009 0 0 10 0
0.6400 0.0839 -0.0009 0 0 10 0
0.6380 0.0837 0.0058 0 0 10 0
0.6320 0.0836 0.0072 0 0 10 0
0.6640 0.0830 0.0041 0 0 10 0
0.6680 0.0828 0.0032 0 0 10 0
0.6660 0.0828 0.0032 0 0 10 0
0.6680 0.0823 0.0031 0 0 10 0
0.6560 0.0815 0.0043 0 0 10 0
0.6580 0.0807 0.0046 0 0 10 0
0.6560 0.0803 0.0070 0 0 10 0
0.6560 0.0803 0.0070 0 0 10 0
0.6760 0.0799 0.0073 0 0 10 0
0.6560 0.0799 0.0073 0 0 10 0
0.6740 0.0800 0.0074 0 0 10 0
0.6540 0.0792 0.0116 0 0 10 0
0.6580 0.0791 0.0116 0 0 10 0
0.6580 0.0790 0.0115 0 0 10 0
0.6660 0.0790 0.0115 0 0 10 0
0.6540 0.0779 0.0126 0 0 10 0
0.6500 0.0779 0.0126 0 0 10 0
0.6520 0.0775 0.0116 0 0 10 0
0.6600 0.0766 0.0084 0 0 10 0
0.6740 0.0760 0.0085 0 0 10 0
0.6740 0.0760 0.0085 0 0 10 0
0.6480 0.0754 0.0055 0 0 10 0
0.6740 0.0745 0.0075 0 0 10 0
0.6520 0.0740 0.0081 0 0 10 0
0.6520 0.0740 0.0081 0 0 10 0
0.6660 0.0733 0.0105 0 0 10 0
0.6500 0.0725 0.0093 0 0 10 0
0.6560 0.0722 0.0074 0 0 10 0
0.6660 0.0714 0.0076 0 0 10 0
0.6800 0.0709 0.0037 0 0 10 0
0.7000 0.0706 0.0037 0 0 10 0
0.7000 0.0706 0.0037 0 0 10 0
0.6700 0.0695 0.0054 0 0 10 0
0.6500 0.0692 0.0054 0 0 10 0
0.6820 0.0692 0.0054 0 0 10 0
0.6820 0.0692 0.0054 0 0 10 0
0.6840 0.0687 0.0049 0 0 10 0
0.6840 0.0687 0.0049 0 0 10 0
0.6800 0.0681 0.0049 0 0 10 0
0.6580 0.0670 0.0023 0 0 10 0
0.6680 0.0664 0.0024 0 0 10 0
0.6680 0.0661 0.0022 0 0 10 0
0.7060 0.0653 -0.0025 0 0 10 0
0.7060 0.0653 -0.0025 0 0 10 0
0.6680 0.0650 -0.0021 0 0 10 0
0.6760 0.0649 -0.0003 0 0 10 0
0.6760 0.0649 -0.0011 0 0 10 0
0.6760 0.0649 -0.0011 0 0 10 0
0.6600 0.0648 0.0005 0 0 10 0
0.6560 0.0645 0.0021 0 0 10 0
0.6660 0.0639 0.0052 0 0 10 0
0.6780 0.0637 0.0062 0 0 10 0
0.6720 0.0633 0.0058 0 0 10 0
0.6680 0.0631 0.0065 0 0 10 0
0.6680 0.0631 0.0065 0 0 10 0
0.6540 0.0631 0.0065 0 0 10 0
0.6860 0.0628 0.0055 0 0 10 0
0.6660 0.0622 0.0051 0 0 10 0
0.6800 0.0616 0.0030 0 0 10 0
0.6800 0.0616 0.0030 0 0 10 0
0.6820 0.0604 -0.0017 0 0 10 0
0.6820 0.0604 -0.0017 0 0 10 0
0.6780 0.0601 -0.0040 0 0 10 0
0.6700 0.0594 -0.0036 0 0 10 0
0.6880 0.0587 -0.0035 0 0 10 0
0.6700 0.0585 -0.0035 0 0 10 0
0.6700 0.0585 -0.0035 0 0 10 0
0.7060 0.0579 -0.0015 0 0 10 0
0.6760 0.0577 -0.0016 0 0 10 0
0.6820 0.0573 -0.0089 0 0 10 0
0.6820 0.0573 -0.0089 0 0 10 0
0.6940 0.0565 -0.0092 0 0 10 0
0.6940 0.0565 -0.0092 0 0 10 0
0.7040 0.0561 -0.0086 0 0 10 0
0.6880 0.0555 -0.0102 0 0 10 0
0.6800 0.0548 -0.0100 0 0 10 0
0.6780 0.0536 -0.0038 0 0 10 0
0.6780 0.0536 -0.0038 0 0 10 0
0.6640 0.0532 -0.0026 0 0 10 0
0.6640 0.0532 -0.0026 0 0 10 0
0.6860 0.0538 -0.0010 0 0 10 0
0.7120 0.0540 -0.0029 0 0 10 0
0.6740 0.0535 -0.0018 0 0 10 0
0.6780 0.0523 -0.0015 0 0 10 0
0.6780 0.0523 -0.0015 0 0 10 0
0.7040 0.0515 0.0027 0 0 10 0
0.7040 0.0515 0.0027 0 0 10 0
0.7000 0.0511 0.0045 0 0 10 0
0.7240 0.0510 0.0043 0 0 10 0
0.7240 0.0510 0.0043 0 0 10 0
0.7080 0.0504 0.0076 0 0 10 0
0.7060 0.0499 0.0074 0 0 10 0
0.7000 0.0495 0.0073 0 0 10 0
0.7000 0.0495 0.0073 0 0 10 0
0.7240 0.0485 0.0077 0 0 10 0
0.7180 0.0474 0.0078 0 0 10 0
0.7180 0.0474 0.0078 0 0 10 0
0.7080 0.0469 0.0075 0 0 10 0
0.7060 0.0460 0.0005 0 0 10 0
0.7220 0.0455 0.0001 0 0 10 0
0.7220 0.0455 0.0001 0 0 10 0
0.7060 0.0453 0.0035 0 0 10 0
0.7160 0.0444 0.0034 0 0 10 0
0.6960 0.0440 0.0038 0 0 10 0
0.6960 0.0440 0.0038 0 0 10 0
0.7140 0.0434 0.0039 0 0 10 0
0.7120 0.0433 0.0054 0 0 10 0
0.7040 0.0432 0.0019 0 0 10 0
0.7080 0.0428 0.0019 0 0 10 0
0.7120 0.0424 0.0019 0 0 10 0
0.7120 0.0425 0.0054 0 0 10 0
0.7020 0.0421 0.0054 0 0 10 0
0.7120 0.0414 0.0081 0 0 10 0
0.7120 0.0414 0.0081 0 0 10 0
0.7040 0.0407 0.0083 0 0 10 0
0.7160 0.0402 0.0100 0 0 10 0
0.7020 0.0393 0.0089 0 0 10 0
0.7120 0.0393 0.0055 0 0 10 0
0.7120 0.0393 0.0011 0 0 10 0
0.7040 0.0393 0.0011 0 0 10 0
0.7280 0.0389 -0.0024 0 0 10 0
0.7280 0.0390 -0.0047 0 0 10 0
0.7100 0.0389 -0.0040 0 0 10 0
0.7120 0.0383 -0.0041 0 0 10 0
0.7060 0.0376 -0.0037 0 0 10 0
0.7060 0.0376 -0.0037 0 0 10 0
0.6960 0.0374 -0.0028 0 0 10 0
0.7260 0.0370 -0.0023 0 0 10 0
0.7140 0.0366 -0.0020 0 0 10 0
0.7140 0.0366 -0.0020 0 0 10 0
0.7000 0.0354 -0.0059 0 0 10 0
0.7000 0.0354 -0.0059 0 0 10 0
0.7080 0.0342 -0.0071 0 0 10 0
0.7340 0.0332 -0.0067 0 0 10 0
0.6980 0.0324 -0.0084 0 0 10 0
0.7180 0.0320 -0.0081 0 0 10 0
0.7120 0.0316 -0.0066 0 0 10 0
0.7300 0.0313 -0.0060 0 0 10 0
0.7300 0.0313 -0.0060 0 0 10 0
0.7240 0.0312 -0.0073 0 0 10 0
0.7340 0.0307 -0.0068 0 0 10 0
0.7240 0.0303 -0.0058 0 0 10 0
0.7200 0.0300 -0.0062 0 0 10 0
0.7060 0.0299 -0.0064 0 0 10 0
0.7060 0.0299 -0.0064 0 0 10 0
0.7100 0.0297 -0.0056 0 0 10 0
0.7060 0.0296 -0.0068 0 0 10 0
0.7000 0.0291 -0.0073 0 0 10 0
0.7300 0.0280 -0.0065 0 0 10 0
0.7260 0.0272 -0.0039 0 0 10 0
0.7260 0.0272 -0.0039 0 0 10 0
0.7180 0.0269 -0.0049 0 0 10 0
0.6940 0.0265 -0.0036 0 0 10 0
0.7000 0.0259 -0.0036 0 0 10 0
0.7000 0.0259 -0.0036 0 0 10 0
0.7300 0.0248 -0.0010 0 0 10 0
0.7220 0.0247 -0.0009 0 0 10 0
0.7220 0.0247 -0.0009 0 0 10 0
0.7420 0.0240 0.0023 0 0 10 0
0.7120 0.0236 0.0040 0 0 10 0
0.7120 0.0236 0.0040 0 0 10 0
0.7340 0.0230 0.0044 0 0 10 0
0.7340 0.0230 0.0044 0 0 10 0
0.7380 0.0229 0.0042 0 0 10 0
0.7400 0.0225 0.0029 0 0 10 0
0.7320 0.0225 0.0032 0 0 10 0
0.7360 0.0223 0.0057 0 0 10 0
0.7360 0.0223 0.0057 0 0 10 0
0.7380 0.0216 0.0063 0 0 10 0
0.7320 0.0212 0.0064 0 0 10 0
0.7360 0.0214 0.0061 0 0 10 0
0.7360 0.0214 0.0061 0 0 10 0
0.7440 0.0212 0.0077 0 0 10 0
0.7420 0.0209 0.0069 0 0 10 0
0.7420 0.0209 0.0069 0 0 10 0
0.7320 0.0205 0.0074 0 0 10 0
0.7560 0.0203 0.0073 0 0 10 0
0.7240 0.0197 0.0063 0 0 10 0
0.7240 0.0197 0.0063 0 0 10 0
0.7220 0.0191 0.0039 0 0 10 0
0.7400 0.0187 0.0056 0 0 10 0
0.7520 0.0182 0.0047 0 0 10 0
0.7420 0.0180 0.0022 0 0 10 0
0.7500 0.0177 0.0064 0 0 10 0
0.7500 0.0172 0.0089 0 0 10 0
0.7420 0.0172 0.0089 0 0 10 0
0.7300 0.0171 0.0078 0 0 10 0
0.7380 0.0169 0.0081 0 0 10 0
0.7400 0.0167 0.0088 0 0 10 0
0.7600 0.0157 0.0083 0 0 10 0
0.7600 0.0157 0.0083 0 0 10 0
0.7540 0.0150 0.0086 0 0 10 0
0.7360 0.0140 0.0080 0 0 10 0
0.7500 0.0136 0.0080 0 0 10 0
0.7380 0.0133 0.0063 0 0 10 0
0.7180 0.0134 0.0060 0 0 10 0
0.7380 0.0132 0.0098 0 0 10 0
0.7260 0.0126 0.0094 0 0 10 0
0.7260 0.0126 0.0094 0 0 10 0
0.7460 0.0115 0.0107 0 0 10 0
0.7300 0.0110 0.0111 0 0 10 0
0.7300 0.0110 0.0111 0 0 0 0
0.7580 0.0065 -0.0076 0 0 0 0
0.7640 0.0063 -0.0097 0 0 10 0
0.7580 0.0058 -0.0066 0 0 10 0
