0.5340 0.2734 0.0110 0 0 10 0
0.5400 0.2732 0.0082 0 0 10 0
0.5520 0.2729 0.0090 0 0 10 0
0.5520 0.2729 0.0090 0 0 10 0
0.5300 0.2739 0.0113 0 0 10 0
0.5380 0.2743 0.0117 0 0 10 0
0.5480 0.2742 0.0121 0 0 10 0
0.5480 0.2740 0.0115 0 0 10 0
0.5340 0.2740 0.0115 0 0 10 0
0.5440 0.2739 0.0153 0 0 10 0
0.5540 0.2738 0.0148 0 0 10 0
0.5340 0.2740 0.0142 0 0 10 0
0.5340 0.2740 0.0142 0 0 10 0
0.5540 0.2739 0.0142 0 0 10 0
0.5440 0.2735 0.0133 0 0 10 0
0.5440 0.2735 0.0133 0 0 10 0
0.5360 0.2732 0.0121 0 0 10 0
0.5400 0.2729 0.0120 0 0 10 0
0.5460 0.2714 0.0133 0 0 10 0
0.5460 0.2714 0.0133 0 0 10 0
0.5580 0.2708 0.0111 0 0 10 0
0.5580 0.2708 0.0111 0 0 10 0
0.5620 0.2711 0.0126 0 0 10 0
0.5620 0.2708 0.0121 0 0 10 0
0.5620 0.2708 0.0121 0 0 10 0
0.5640 0.2702 0.0117 0 0 10 0
0.5580 0.2692 0.0137 0 0 10 0
0.5580 0.2692 0.0137 0 0 10 0
0.5420 0.2683 0.0090 0 0 10 0
0.5400 0.2678 0.0094 0 0 10 0
0.5520 0.2675 0.0097 0 0 10 0
0.5600 0.2675 0.0098 0 0 10 0
0.5600 0.2675 0.0098 0 0 10 0
0.5540 0.2679 0.0058 0 0 10 0
0.5540 0.2679 0.0058 0 0 10 0
0.5640 0.2675 0.0060 0 0 10 0
0.5500 0.2669 0.0032 0 0 10 0
0.5680 0.2664 0.0029 0 0 10 0
0.5680 0.2664 0.0029 0 0 10 0
0.5500 0.2666 0.0045 0 0 10 0
0.5640 0.2664 0.0040 0 0 10 0
0.5680 0.2662 0.0033 0 0 10 0
0.5480 0.2657 0.0031 0 0 10 0
0.5580 0.2653 0.0085 0 0 10 0
0.5580 0.2649 0.0085 0 0 10 0
0.5540 0.2649 0.0085 0 0 10 0
0.5400 0.2647 0.0043 0 0 10 0
0.5600 0.2643 0.0043 0 0 10 0
0.5720 0.2639 0.0036 0 0 10 0
0.5620 0.2632 0.0019 0 0 10 0
0.5620 0.2632 0.0019 0 0 10 0
0.5660 0.2627 0.0023 0 0 10 0
0.5560 0.2626 0.0010 0 0 10 0
0.5480 0.2618 0.0021 0 0 10 0
0.5600 0.2600 0.0016 0 0 10 0
0.5660 0.2594 0.0028 0 0 10 0
0.5660 0.2594 0.0028 0 0 10 0
0.5580 0.2590 0.0047 0 0 10 0
0.5580 0.2589 0.0024 0 0 10 0
0.5580 0.2589 0.0024 0 0 10 0
0.5580 0.2590 0.0039 0 0 10 0
0.5560 0.2591 0.0030 0 0 10 0
0.5580 0.2587 0.0029 0 0 10 0
0.5700 0.2582 0.0032 0 0 10 0
0.5580 0.2574 0.0045 0 0 10 0
0.5720 0.2569 0.0059 0 0 10 0
0.5780 0.2566 0.0064 0 0 10 0
0.5780 0.2566 0.0064 0 0 10 0
0.5560 0.2568 0.0061 0 0 10 0
0.5620 0.2561 0.0044 0 0 10 0
0.5540 0.2553 0.0044 0 0 10 0
0.5720 0.2543 0.0063 0 0 10 0
0.5720 0.2543 0.0063 0 0 10 0
0.5740 0.2540 0.0061 0 0 10 0
0.5620 0.2532 0.0053 0 0 10 0
0.5760 0.2535 0.0055 0 0 10 0
0.5700 0.2538 0.0085 0 0 10 0
0.5620 0.2538 0.0083 0 0 10 0
0.5580 0.2533 0.0076 0 0 10 0
0.5580 0.2533 0.0076 0 0 10 0
0.5520 0.2528 0.0079 0 0 10 0
0.5540 0.2519 0.0080 0 0 10 0
0.5700 0.2512 0.0077 0 0 10 0
0.5420 0.2509 0.0079 0 0 10 0
0.5600 0.2506 0.0096 0 0 10 0
0.5420 0.2503 0.0089 0 0 10 0
0.5420 0.2503 0.0089 0 0 10 0
0.5680 0.2496 0.0081 0 0 10 0
0.5680 0.2482 0.0084 0 0 10 0
0.5680 0.2482 0.0084 0 0 10 0
0.5500 0.2478 0.0086 0 0 10 0
0.5420 0.2473 0.0074 0 0 10 0
0.5620 0.2471 0.0074 0 0 10 0
0.5740 0.2467 0.0029 0 0 10 0
0.5920 0.2463 0.0032 0 0 10 0
0.6120 0.2461 0.0034 0 0 10 0
0.6120 0.2461 0.0034 0 0 10 0
0.5880 0.2450 0.0046 0 0 10 0
0.5680 0.2444 0.0045 0 0 10 0
0.5700 0.2435 0.0031 0 0 10 0
0.5760 0.2428 0.0037 0 0 10 0
0.5740 0.2429 0.0041 0 0 10 0
0.5740 0.2431 0.0044 0 0 10 0
0.5740 0.2431 0.0044 0 0 10 0
0.5780 0.2428 0.0056 0 0 10 0
0.5780 0.2425 0.0062 0 0 10 0
0.5800 0.2420 0.0061 0 0 10 0
0.5800 0.2410 0.0066 0 0 10 0
0.5740 0.2408 0.0069 0 0 10 0
0.5840 0.2405 0.0062 0 0 10 0
0.5840 0.2405 0.0062 0 0 10 0
0.5620 0.2396 0.0078 0 0 10 0
0.5600 0.2388 0.0060 0 0 10 0
0.5840 0.2382 0.0036 0 0 10 0
0.5920 0.2375 0.0028 0 0 10 0
0.5820 0.2376 -0.0016 0 0 10 0
0.5820 0.2376 -0.0016 0 0 10 0
0.5660 0.2369 -0.0007 0 0 10 0
0.5800 0.2369 -0.0007 0 0 10 0
0.5720 0.2368 -0.0003 0 0 10 0
0.5780 0.2355 -0.0020 0 0 10 0
0.5940 0.2355 -0.0002 0 0 10 0
0.5940 0.2355 -0.0002 0 0 10 0
0.5800 0.2356 -0.0018 0 0 10 0
0.5720 0.2357 -0.0038 0 0 10 0
0.5880 0.2350 -0.0041 0 0 10 0
0.5640 0.2336 0.0012 0 0 10 0
0.5760 0.2335 0.0010 0 0 10 0
0.5760 0.2335 0.0010 0 0 10 0
0.5680 0.2335 0.0041 0 0 10 0
0.5840 0.2335 0.0041 0 0 10 0
0.5700 0.2331 0.0022 0 0 10 0
0.5700 0.2331 0.0022 0 0 10 0
0.5900 0.2317 0.0034 0 0 10 0
0.5900 0.2317 0.0034 0 0 10 0
0.5540 0.2309 0.0035 0 0 10 0
0.5760 0.2305 0.0026 0 0 10 0
0.5740 0.2303 0.0023 0 0 10 0
0.5820 0.2300 0.0033 0 0 10 0
0.5820 0.2300 0.0033 0 0 10 0
0.5940 0.2294 0.0029 0 0 10 0
0.5940 0.2289 0.0025 0 0 10 0
0.5960 0.2284 0.0018 0 0 10 0
0.5840 0.2277 0.0031 0 0 10 0
0.5840 0.2277 0.0031 0 0 10 0
0.5720 0.2267 0.0045 0 0 10 0
0.5840 0.2266 0.0059 0 0 10 0
0.5800 0.2265 0.0054 0 0 10 0
0.5820 0.2261 0.0030 0 0 10 0
0.5860 0.2255 0.0037 0 0 10 0
0.5860 0.2255 0.0037 0 0 10 0
0.5780 0.2253 0.0042 0 0 10 0
0.5700 0.2243 -0.0015 0 0 10 0
0.5800 0.2241 -0.0013 0 0 10 0
0.5680 0.2228 0.0007 0 0 10 0
0.5840 0.2219 0.0015 0 0 10 0
0.5840 0.2219 0.0015 0 0 10 0
0.5680 0.2212 0.0059 0 0 10 0
0.5760 0.2204 0.0071 0 0 10 0
0.5760 0.2204 0.0071 0 0 10 0
0.5980 0.2203 0.0074 0 0 10 0
0.5880 0.2203 0.0079 0 0 10 0
0.5700 0.2203 0.0082 0 0 10 0
0.5520 0.2207 0.0085 0 0 10 0
0.5880 0.2193 0.0096 0 0 10 0
0.5880 0.2193 0.0096 0 0 10 0
0.5700 0.2181 0.0079 0 0 10 0
0.6060 0.2173 0.0080 0 0 10 0
0.5840 0.2170 0.0082 0 0 10 0
0.5840 0.2170 0.0082 0 0 10 0
0.5840 0.2167 0.0102 0 0 10 0
0.5580 0.2167 0.0099 0 0 10 0
0.5780 0.2166 0.0102 0 0 10 0
0.5700 0.2161 0.0129 0 0 10 0
0.5820 0.2150 0.0129 0 0 10 0
0.5820 0.2150 0.0129 0 0 10 0
0.5780 0.2143 0.0132 0 0 10 0
0.5740 0.2138 0.0150 0 0 10 0
0.5900 0.2138 0.0150 0 0 10 0
0.5720 0.2132 0.0125 0 0 10 0
0.5900 0.2126 0.0125 0 0 10 0
0.5920 0.2124 0.0119 0 0 10 0
0.5740 0.2126 0.0121 0 0 10 0
0.5740 0.2126 0.0121 0 0 10 0
0.5760 0.2127 0.0115 0 0 10 0
0.5720 0.2121 0.0117 0 0 10 0
0.5640 0.2114 0.0112 0 0 10 0
0.5760 0.2112 0.0099 0 0 10 0
0.5920 0.2113 0.0090 0 0 10 0
0.5920 0.2113 0.0090 0 0 10 0
0.5800 0.2114 0.0088 0 0 10 0
0.5780 0.2112 0.0083 0 0 10 0
0.5920 0.2112 0.0065 0 0 10 0
0.5900 0.2106 0.0067 0 0 10 0
0.5720 0.2099 0.0040 0 0 10 0
0.5720 0.2099 0.0040 0 0 10 0
0.5960 0.2091 0.0025 0 0 10 0
0.5620 0.2087 0.0024 0 0 10 0
0.5920 0.2084 0.0024 0 0 10 0
0.5840 0.2090 0.0033 0 0 10 0
0.5840 0.2090 0.0033 0 0 10 0
0.5720 0.2092 0.0038 0 0 10 0
0.5900 0.2086 0.0061 0 0 10 0
0.5780 0.2079 0.0064 0 0 10 0
0.5880 0.2072 0.0075 0 0 10 0
0.5920 0.2062 0.0085 0 0 10 0
0.5920 0.2058 0.0100 0 0 10 0
0.5780 0.2058 0.0100 0 0 10 0
0.5880 0.2057 0.0107 0 0 10 0
0.5740 0.2058 0.0087 0 0 10 0
0.5740 0.2058 0.0087 0 0 10 0
0.5680 0.2051 0.0086 0 0 10 0
0.5800 0.2043 0.0083 0 0 10 0
0.5780 0.2038 0.0067 0 0 10 0
0.5780 0.2035 0.0068 0 0 10 0
0.5840 0.2029 0.0052 0 0 10 0
0.5840 0.2031 0.0045 0 0 10 0
0.5760 0.2031 0.0045 0 0 10 0
0.5720 0.2033 0.0046 0 0 10 0
0.5920 0.2027 0.0054 0 0 10 0
0.6040 0.2022 0.0057 0 0 10 0
0.5820 0.2011 0.0047 0 0 10 0
0.5860 0.2000 0.0045 0 0 10 0
0.5860 0.2000 0.0045 0 0 10 0
0.5820 0.1995 0.0052 0 0 10 0
0.5820 0.1995 0.0052 0 0 10 0
0.6080 0.1992 0.0025 0 0 10 0
0.6200 0.1989 0.0024 0 0 10 0
0.6200 0.1989 0.0024 0 0 10 0
0.6040 0.1986 0.0013 0 0 10 0
0.6020 0.1984 0.0028 0 0 10 0
0.5960 0.1981 0.0027 0 0 10 0
0.5800 0.1975 0.0033 0 0 10 0
0.5940 0.1969 0.0080 0 0 10 0
0.5900 0.1969 0.0100 0 0 10 0
0.5900 0.1969 0.0100 0 0 10 0
0.5900 0.1965 0.0100 0 0 10 0
0.5720 0.1961 0.0099 0 0 10 0
0.5900 0.1950 0.0100 0 0 10 0
0.5900 0.1951 0.0103 0 0 10 0
0.5760 0.1948 0.0120 0 0 10 0
0.5760 0.1948 0.0120 0 0 10 0
0.5860 0.1943 0.0130 0 0 10 0
0.5920 0.1939 0.0120 0 0 10 0
0.6080 0.1932 0.0108 0 0 10 0
0.6000 0.1925 0.0125 0 0 10 0
0.5880 0.1919 0.0128 0 0 10 0
0.5880 0.1919 0.0128 0 0 10 0
0.5820 0.1917 0.0126 0 0 10 0
0.5820 0.1918 0.0128 0 0 10 0
0.5980 0.1915 0.0129 0 0 10 0
0.5840 0.1913 0.0134 0 0 10 0
0.5840 0.1913 0.0134 0 0 10 0
0.5940 0.1901 0.0131 0 0 10 0
0.6060 0.1899 0.0137 0 0 10 0
0.5900 0.1897 0.0138 0 0 10 0
0.5880 0.1896 0.0149 0 0 10 0
0.5960 0.1896 0.0151 0 0 10 0
0.5880 0.1897 0.0169 0 0 10 0
0.5880 0.1897 0.0169 0 0 10 0
0.5900 0.1890 0.0142 0 0 10 0
0.5920 0.1884 0.0142 0 0 10 0
0.5940 0.1877 0.0138 0 0 10 0
0.6000 0.1866 0.0141 0 0 10 0
0.6120 0.1862 0.0113 0 0 10 0
0.5980 0.1860 0.0115 0 0 10 0
0.5980 0.1860 0.0115 0 0 10 0
0.5920 0.1853 0.0102 0 0 10 0
0.5920 0.1853 0.0102 0 0 10 0
0.5780 0.1852 0.0098 0 0 10 0
0.5800 0.1845 0.0111 0 0 10 0
0.5900 0.1839 0.0119 0 0 10 0
0.5900 0.1839 0.0119 0 0 10 0
0.5940 0.1835 0.0141 0 0 10 0
0.6020 0.1828 0.0132 0 0 10 0
0.6020 0.1828 0.0132 0 0 10 0
0.6040 0.1825 0.0129 0 0 10 0
0.6060 0.1826 0.0125 0 0 10 0
0.6060 0.1826 0.0126 0 0 10 0
0.6060 0.1826 0.0126 0 0 10 0
0.5740 0.1822 0.0117 0 0 10 0
0.5740 0.1822 0.0117 0 0 10 0
0.5980 0.1810 0.0119 0 0 10 0
0.6140 0.1806 0.0117 0 0 10 0
0.5940 0.1798 0.0115 0 0 10 0
0.5940 0.1798 0.0115 0 0 10 0
0.6020 0.1794 0.0115 0 0 10 0
0.6020 0.1796 0.0112 0 0 10 0
0.6000 0.1793 0.0115 0 0 10 0
0.6000 0.1793 0.0115 0 0 10 0
0.6120 0.1779 0.0099 0 0 10 0
0.6120 0.1774 0.0108 0 0 10 0
0.5980 0.1774 0.0108 0 0 10 0
0.6060 0.1770 0.0087 0 0 10 0
0.6020 0.1761 0.0082 0 0 10 0
0.6060 0.1754 0.0078 0 0 10 0
0.6060 0.1754 0.0078 0 0 10 0
0.6040 0.1741 0.0078 0 0 10 0
0.6040 0.1741 0.0078 0 0 10 0
0.6020 0.1742 0.0084 0 0 10 0
0.6020 0.1735 0.0071 0 0 10 0
0.6020 0.1735 0.0071 0 0 10 0
0.5860 0.1733 0.0065 0 0 10 0
0.6100 0.1724 0.0070 0 0 10 0
0.6100 0.1724 0.0070 0 0 10 0
0.6060 0.1726 0.0070 0 0 10 0
0.5940 0.1729 0.0062 0 0 10 0
0.6060 0.1726 0.0058 0 0 10 0
0.5960 0.1720 0.0064 0 0 10 0
0.5920 0.1718 0.0060 0 0 10 0
0.6120 0.1717 0.0060 0 0 10 0
0.6120 0.1717 0.0060 0 0 10 0
0.6120 0.1709 0.0080 0 0 10 0
0.6100 0.1706 0.0101 0 0 10 0
0.6040 0.1701 0.0068 0 0 10 0
0.6140 0.1699 0.0063 0 0 10 0
0.6140 0.1699 0.0063 0 0 10 0
0.5940 0.1698 0.0064 0 0 10 0
0.5940 0.1698 0.0064 0 0 10 0
0.6060 0.1695 0.0050 0 0 10 0
0.6140 0.1692 0.0046 0 0 10 0
0.6000 0.1688 0.0045 0 0 10 0
0.6060 0.1688 0.0044 0 0 10 0
0.6360 0.1686 0.0025 0 0 10 0
0.6040 0.1680 0.0027 0 0 10 0
0.6040 0.1680 0.0027 0 0 10 0
0.6240 0.1668 0.0009 0 0 10 0
0.6240 0.1667 0.0018 0 0 10 0
0.6300 0.1665 0.0039 0 0 10 0
0.6260 0.1662 0.0041 0 0 10 0
0.6200 0.1663 0.0034 0 0 10 0
0.6200 0.1663 0.0034 0 0 10 0
0.6160 0.1655 0.0054 0 0 10 0
0.6160 0.1650 0.0035 0 0 10 0
0.5880 0.1648 0.0033 0 0 10 0
0.6160 0.1640 -0.0001 0 0 10 0
0.6020 0.1635 -0.0001 0 0 10 0
0.6080 0.1633 0.0022 0 0 10 0
0.6080 0.1633 0.0022 0 0 10 0
0.6280 0.1629 0.0022 0 0 10 0
0.5960 0.1626 0.0005 0 0 10 0
0.6280 0.1621 0.0002 0 0 10 0
0.6220 0.1617 0.0015 0 0 10 0
0.6220 0.1617 0.0015 0 0 10 0
0.6340 0.1611 0.0002 0 0 10 0
0.6340 0.1611 0.0002 0 0 10 0
0.6080 0.1609 0.0005 0 0 10 0
0.6540 0.1601 0.0017 0 0 10 0
0.6380 0.1597 0.0004 0 0 10 0
0.6160 0.1592 0.0006 0 0 10 0
0.6160 0.1592 0.0006 0 0 10 0
0.6060 0.1583 0.0029 0 0 10 0
0.6060 0.1583 0.0029 0 0 10 0
0.6120 0.1583 0.0020 0 0 10 0
0.6180 0.1586 0.0021 0 0 10 0
0.6360 0.1584 0.0043 0 0 10 0
0.6240 0.1581 0.0019 0 0 10 0
0.6180 0.1573 0.0019 0 0 10 0
0.6440 0.1566 0.0008 0 0 10 0
0.6440 0.1566 0.0008 0 0 10 0
0.6200 0.1557 0.0014 0 0 10 0
0.6140 0.1552 0.0018 0 0 10 0
0.6280 0.1547 0.0026 0 0 10 0
0.6160 0.1546 0.0046 0 0 10 0
0.6160 0.1546 0.0046 0 0 10 0
0.6420 0.1546 0.0049 0 0 10 0
0.6180 0.1546 0.0057 0 0 10 0
0.6300 0.1538 0.0060 0 0 10 0
0.6200 0.1531 0.0069 0 0 10 0
0.6120 0.1520 0.0065 0 0 10 0
0.6020 0.1510 0.0059 0 0 10 0
0.6020 0.1510 0.0059 0 0 10 0
0.6040 0.1509 0.0060 0 0 10 0
0.6000 0.1511 0.0028 0 0 10 0
0.6120 0.1506 0.0031 0 0 10 0
0.6220 0.1501 0.0050 0 0 10 0
0.6340 0.1493 0.0064 0 0 10 0
0.6340 0.1486 0.0078 0 0 10 0
0.6220 0.1486 0.0078 0 0 10 0
0.6040 0.1473 0.0061 0 0 10 0
0.6480 0.1472 0.0062 0 0 10 0
0.6160 0.1470 0.0062 0 0 10 0
0.6440 0.1464 0.0059 0 0 10 0
0.6440 0.1464 0.0059 0 0 10 0
0.6120 0.1459 0.0066 0 0 10 0
0.6280 0.1453 0.0079 0 0 10 0
0.6100 0.1446 0.0079 0 0 10 0
0.6120 0.1446 0.0071 0 0 10 0
0.6120 0.1446 0.0071 0 0 10 0
0.6320 0.1442 0.0079 0 0 10 0
0.6320 0.1440 0.0046 0 0 10 0
0.6360 0.1440 0.0046 0 0 10 0
0.6160 0.1437 0.0049 0 0 10 0
0.6000 0.1432 0.0035 0 0 10 0
0.6000 0.1432 0.0035 0 0 10 0
0.6200 0.1428 0.0037 0 0 10 0
0.6260 0.1420 0.0055 0 0 10 0
0.6040 0.1410 0.0096 0 0 10 0
0.6260 0.1405 0.0103 0 0 10 0
0.6060 0.1398 0.0104 0 0 10 0
0.6060 0.1395 0.0111 0 0 10 0
0.6060 0.1395 0.0111 0 0 10 0
0.6140 0.1391 0.0114 0 0 10 0
0.6400 0.1389 0.0095 0 0 10 0
0.6220 0.1390 0.0114 0 0 10 0
0.6140 0.1394 0.0140 0 0 10 0
0.6260 0.1396 0.0137 0 0 10 0
0.6260 0.1395 0.0137 0 0 10 0
0.6220 0.1395 0.0137 0 0 10 0
0.6060 0.1387 0.0137 0 0 10 0
0.6080 0.1382 0.0115 0 0 10 0
0.6100 0.1383 0.0116 0 0 10 0
0.6100 0.1383 0.0116 0 0 10 0
0.6000 0.1385 0.0123 0 0 10 0
0.6000 0.1385 0.0123 0 0 10 0
0.6180 0.1386 0.0128 0 0 10 0
0.6240 0.1381 0.0131 0 0 10 0
0.6080 0.1381 0.0140 0 0 10 0
0.6080 0.1381 0.0140 0 0 10 0
0.6040 0.1375 0.0138 0 0 10 0
0.6000 0.1374 0.0139 0 0 10 0
0.5860 0.1361 0.0125 0 0 10 0
0.6060 0.1354 0.0126 0 0 10 0
0.6240 0.1348 0.0096 0 0 10 0
0.6240 0.1348 0.0096 0 0 10 0
0.6120 0.1338 0.0095 0 0 10 0
0.6200 0.1334 0.0105 0 0 10 0
0.6200 0.1334 0.0105 0 0 10 0
0.6100 0.1333 0.0104 0 0 10 0
0.6180 0.1331 0.0087 0 0 10 0
0.6520 0.1328 0.0103 0 0 10 0
0.6520 0.1328 0.0103 0 0 10 0
0.6240 0.1319 0.0105 0 0 10 0
0.6080 0.1315 0.0103 0 0 10 0
0.6340 0.1307 0.0107 0 0 10 0
0.6040 0.1301 0.0059 0 0 10 0
0.6240 0.1297 0.0051 0 0 10 0
0.6260 0.1291 0.0073 0 0 10 0
0.6340 0.1280 0.0086 0 0 10 0
0.6340 0.1280 0.0086 0 0 10 0
0.6160 0.1272 0.0062 0 0 10 0
0.6080 0.1267 0.0076 0 0 10 0
0.6160 0.1267 0.0062 0 0 10 0
0.5980 0.1268 0.0048 0 0 10 0
0.5980 0.1268 0.0048 0 0 10 0
0.6100 0.1264 0.0048 0 0 10 0
0.6200 0.1260 0.0049 0 0 10 0
0.6020 0.1255 0.0051 0 0 10 0
0.5980 0.1243 0.0043 0 0 10 0
0.5980 0.1243 0.0043 0 0 10 0
0.6100 0.1241 0.0052 0 0 10 0
0.6440 0.1239 0.0055 0 0 10 0
0.6420 0.1233 0.0069 0 0 10 0
0.6320 0.1231 0.0070 0 0 10 0
0.6320 0.1231 0.0070 0 0 10 0
0.6260 0.1227 0.0072 0 0 10 0
0.6220 0.1225 0.0069 0 0 10 0
0.6120 0.1225 0.0061 0 0 10 0
0.6280 0.1218 0.0054 0 0 10 0
0.6280 0.1218 0.0054 0 0 10 0
0.6540 0.1216 0.0046 0 0 10 0
0.6140 0.1213 0.0016 0 0 10 0
0.6140 0.1213 0.0016 0 0 10 0
0.6380 0.1212 -0.0018 0 0 10 0
0.6300 0.1208 -0.0008 0 0 10 0
0.6080 0.1206 -0.0018 0 0 10 0
0.6080 0.1206 -0.0018 0 0 10 0
0.6280 0.1201 -0.0006 0 0 10 0
0.6300 0.1201 -0.0007 0 0 10 0
0.6340 0.1198 -0.0004 0 0 10 0
0.6160 0.1190 -0.0005 0 0 10 0
0.6160 0.1190 -0.0005 0 0 10 0
0.6140 0.1181 0.0024 0 0 10 0
0.6400 0.1176 0.0027 0 0 10 0
0.6280 0.1168 0.0032 0 0 10 0
0.6320 0.1164 0.0036 0 0 10 0
0.6300 0.1161 0.0044 0 0 10 0
0.6300 0.1158 0.0047 0 0 10 0
0.6180 0.1158 0.0047 0 0 10 0
0.6320 0.1156 0.0052 0 0 10 0
0.6200 0.1154 0.0051 0 0 10 0
0.6420 0.1146 0.0033 0 0 10 0
0.6400 0.1135 0.0040 0 0 10 0
0.6340 0.1130 0.0044 0 0 10 0
0.6360 0.1128 0.0078 0 0 10 0
0.6180 0.1121 0.0085 0 0 10 0
0.6180 0.1115 0.0102 0 0 10 0
0.6140 0.1115 0.0102 0 0 10 0
0.6320 0.1109 0.0105 0 0 10 0
0.6320 0.1106 0.0110 0 0 10 0
0.6420 0.1101 0.0110 0 0 10 0
0.6420 0.1101 0.0110 0 0 10 0
0.6300 0.1094 0.0110 0 0 10 0
0.6300 0.1094 0.0110 0 0 10 0
0.6440 0.1092 0.0093 0 0 10 0
0.6580 0.1091 0.0102 0 0 10 0
0.6440 0.1089 0.0117 0 0 10 0
0.6440 0.1084 0.0128 0 0 10 0
0.6240 0.1081 0.0101 0 0 10 0
0.6440 0.1076 0.0097 0 0 10 0
0.6440 0.1076 0.0097 0 0 10 0
0.6500 0.1071 0.0091 0 0 10 0
0.6260 0.1070 0.0083 0 0 10 0
0.6160 0.1067 0.0073 0 0 10 0
0.6160 0.1064 0.0054 0 0 10 0
0.6040 0.1064 0.0054 0 0 10 0
0.6220 0.1061 0.0051 0 0 10 0
0.6220 0.1056 0.0006 0 0 10 0
0.6380 0.1049 0.0005 0 0 10 0
0.6540 0.1043 0.0006 0 0 10 0
0.6300 0.1036 0.0008 0 0 10 0
0.6300 0.1036 0.0008 0 0 10 0
0.6460 0.1025 0.0005 0 0 10 0
0.6360 0.1019 0.0016 0 0 10 0
0.6360 0.1018 0.0020 0 0 10 0
0.6400 0.1012 0.0030 0 0 10 0
0.6460 0.1008 0.0043 0 0 10 0
0.6460 0.1004 0.0008 0 0 10 0
0.6540 0.1004 0.0008 0 0 10 0
0.6320 0.1004 0.0005 0 0 10 0
0.6300 0.0993 0.0033 0 0 10 0
0.6300 0.0993 0.0033 0 0 10 0
0.6320 0.0987 0.0072 0 0 10 0
0.6220 0.0982 0.0078 0 0 10 0
0.6340 0.0982 0.0062 0 0 10 0
0.6460 0.0979 0.0067 0 0 10 0
0.6360 0.0977 0.0056 0 0 10 0
0.6360 0.0977 0.0056 0 0 10 0
0.6320 0.0977 0.0028 0 0 10 0
0.6480 0.0966 0.0036 0 0 10 0
0.6400 0.0957 0.0047 0 0 10 0
0.6620 0.0952 0.0044 0 0 10 0
0.6320 0.0947 0.0043 0 0 10 0
0.6320 0.0947 0.0043 0 0 10 0
0.6320 0.0946 0.0063 0 0 10 0
0.6280 0.0945 0.0058 0 0 10 0
0.6340 0.0944 0.0034 0 0 10 0
0.6160 0.0947 0.0033 0 0 10 0
0.6300 0.0944 0.0024 0 0 10 0
0.6360 0.0937 0.0004 0 0 10 0
0.6360 0.0937 0.0004 0 0 10 0
0.6360 0.0931 -0.0005 0 0 10 0
0.6400 0.0926 0.0007 0 0 10 0
0.6160 0.0921 0.0012 0 0 10 0
0.6300 0.0922 -0.0007 0 0 10 0
0.6300 0.0922 -0.0007 0 0 10 0
0.6200 0.0919 0.0007 0 0 10 0
0.6240 0.0920 0.0006 0 0 10 0
0.6380 0.0916 0.0012 0 0 10 0
0.6400 0.0910 -0.0015 0 0 10 0
0.6400 0.0910 -0.0015 0 0 10 0
0.6220 0.0904 0.0014 0 0 10 0
0.6400 0.0902 0.0018 0 0 10 0
0.6440 0.0897 -0.0005 0 0 10 0
0.6500 0.0896 0.0003 0 0 10 0
0.6500 0.0896 0.0003 0 0 10 0
0.6620 0.0890 0.0005 0 0 10 0
0.6420 0.0883 0.0016 0 0 10 0
0.6520 0.0879 0.0045 0 0 10 0
0.6500 0.0879 0.0035 0 0 10 0
0.6500 0.0879 0.0035 0 0 10 0
0.6420 0.0872 0.0020 0 0 10 0
0.6560 0.0867 0.0043 0 0 10 0
0.6540 0.0863 0.0048 0 0 10 0
0.6460 0.0862 0.0029 0 0 10 0
0.6680 0.0860 0.0031 0 0 10 0
0.6580 0.0854 0.0010 0 0 10 0
0.6580 0.0854 0.0010 0 0 10 0
0.6660 0.0846 0.0035 0 0 10 0
0.6480 0.0847 0.0043 0 0 10 0
0.6660 0.0846 0.0064 0 0 10 0
0.6660 0.0846 0.0064 0 0 10 0
0.6540 0.0841 0.0071 0 0 10 0
0.6520 0.0837 0.0073 0 0 10 0
0.6680 0.0838 0.0080 0 0 10 0
0.6680 0.0838 0.0080 0 0 10 0
0.6480 0.0830 0.0108 0 0 10 0
0.6340 0.0829 0.0106 0 0 10 0
0.6340 0.0829 0.0106 0 0 10 0
0.6480 0.0818 0.0108 0 0 10 0
0.6660 0.0812 0.0111 0 0 10 0
0.6640 0.0809 0.0114 0 0 10 0
0.6640 0.0809 0.0114 0 0 10 0
0.6660 0.0792 0.0133 0 0 10 0
0.6660 0.0792 0.0133 0 0 10 0
0.6640 0.0787 0.0137 0 0 10 0
0.6520 0.0784 0.0125 0 0 10 0
0.6780 0.0783 0.0151 0 0 10 0
0.6740 0.0781 0.0164 0 0 10 0
0.6740 0.0781 0.0164 0 0 10 0
0.6560 0.0777 0.0133 0 0 10 0
0.6640 0.0775 0.0102 0 0 10 0
0.6880 0.0774 0.0102 0 0 10 0
0.6880 0.0774 0.0102 0 0 10 0
0.6600 0.0761 0.0076 0 0 10 0
0.6600 0.0761 0.0076 0 0 10 0
0.6660 0.0750 0.0064 0 0 10 0
0.6720 0.0746 0.0062 0 0 10 0
0.6800 0.0744 0.0063 0 0 10 0
0.6840 0.0740 0.0061 0 0 10 0
0.6840 0.0740 0.0061 0 0 10 0
0.6920 0.0734 0.0053 0 0 10 0
0.6640 0.0730 0.0052 0 0 10 0
0.6900 0.0722 0.0071 0 0 10 0
0.6740 0.0714 0.0047 0 0 10 0
0.6740 0.0708 0.0050 0 0 10 0
0.6740 0.0708 0.0050 0 0 10 0
0.6880 0.0701 0.0037 0 0 10 0
0.6660 0.0697 0.0037 0 0 10 0
0.6660 0.0697 0.0037 0 0 10 0
0.6740 0.0691 0.0043 0 0 10 0
0.6780 0.0687 0.0044 0 0 10 0
0.6980 0.0683 -0.0033 0 0 10 0
0.6980 0.0683 -0.0033 0 0 10 0
0.6760 0.0678 -0.0036 0 0 10 0
0.6800 0.0680 -0.0058 0 0 10 0
0.6560 0.0680 -0.0050 0 0 10 0
0.6540 0.0678 -0.0048 0 0 10 0
0.6660 0.0676 -0.0011 0 0 10 0
0.6600 0.0673 -0.0002 0 0 10 0
0.6600 0.0673 -0.0002 0 0 10 0
0.6600 0.0665 -0.0009 0 0 10 0
0.6720 0.0655 -0.0020 0 0 10 0
0.6780 0.0648 0.0001 0 0 10 0
0.6760 0.0640 0.0018 0 0 10 0
0.6760 0.0640 0.0018 0 0 10 0
0.6780 0.0637 0.0008 0 0 10 0
0.6700 0.0628 0.0023 0 0 10 0
0.6540 0.0628 0.0043 0 0 10 0
0.6780 0.0624 0.0046 0 0 10 0
0.6780 0.0624 0.0046 0 0 10 0
0.6660 0.0620 0.0070 0 0 10 0
0.6660 0.0621 0.0069 0 0 10 0
0.6740 0.0621 0.0069 0 0 10 0
0.6920 0.0612 0.0099 0 0 10 0
0.6800 0.0612 0.0099 0 0 10 0
0.6780 0.0608 0.0106 0 0 10 0
0.6800 0.0592 0.0128 0 0 10 0
0.6800 0.0592 0.0128 0 0 10 0
0.6800 0.0592 0.0159 0 0 10 0
0.6960 0.0590 0.0159 0 0 10 0
0.6980 0.0586 0.0113 0 0 10 0
0.6700 0.0584 0.0115 0 0 10 0
0.6700 0.0584 0.0115 0 0 10 0
0.6860 0.0577 0.0126 0 0 10 0
0.6860 0.0577 0.0126 0 0 10 0
0.7160 0.0569 0.0152 0 0 10 0
0.6900 0.0564 0.0156 0 0 10 0
0.6960 0.0559 0.0156 0 0 10 0
0.7020 0.0550 0.0152 0 0 10 0
0.7020 0.0550 0.0152 0 0 10 0
0.7100 0.0547 0.0157 0 0 10 0
0.7100 0.0547 0.0157 0 0 10 0
0.7000 0.0542 0.0151 0 0 10 0
0.6980 0.0533 0.0128 0 0 10 0
0.6780 0.0528 0.0142 0 0 10 0
0.6700 0.0526 0.0144 0 0 10 0
0.6940 0.0519 0.0133 0 0 10 0
0.6840 0.0517 0.0123 0 0 10 0
0.6800 0.0513 0.0142 0 0 10 0
0.6860 0.0516 0.0110 0 0 10 0
0.6860 0.0516 0.0110 0 0 10 0
0.6920 0.0512 0.0098 0 0 10 0
0.6940 0.0511 0.0106 0 0 10 0
0.7180 0.0506 0.0103 0 0 10 0
0.7180 0.0506 0.0103 0 0 10 0
0.7000 0.0501 0.0082 0 0 10 0
0.6880 0.0499 0.0080 0 0 10 0
0.7220 0.0492 0.0075 0 0 10 0
0.7000 0.0489 0.0066 0 0 10 0
0.7000 0.0489 0.0066 0 0 10 0
0.7020 0.0482 0.0017 0 0 10 0
0.7240 0.0482 0.0017 0 0 10 0
0.7120 0.0478 0.0065 0 0 10 0
0.7220 0.0475 0.0067 0 0 10 0
0.7200 0.0469 0.0060 0 0 10 0
0.7060 0.0459 0.0057 0 0 10 0
0.7060 0.0459 0.0057 0 0 10 0
0.7260 0.0455 0.0080 0 0 10 0
0.7260 0.0455 0.0080 0 0 10 0
0.7060 0.0447 0.0068 0 0 10 0
0.7140 0.0444 0.0050 0 0 10 0
0.6880 0.0436 0.0041 0 0 10 0
0.6880 0.0436 0.0041 0 0 10 0
0.6880 0.0434 0.0023 0 0 10 0
0.7020 0.0429 0.0010 0 0 10 0
0.7020 0.0423 0.0017 0 0 10 0
0.7080 0.0422 0.0039 0 0 10 0
0.7020 0.0417 0.0017 0 0 10 0
0.7020 0.0417 0.0017 0 0 10 0
0.6980 0.0407 0.0015 0 0 10 0
0.7340 0.0403 0.0024 0 0 10 0
0.6940 0.0400 0.0015 0 0 10 0
0.7140 0.0396 0.0001 0 0 10 0
0.6860 0.0393 -0.0008 0 0 10 0
0.6860 0.0393 -0.0008 0 0 10 0
0.6960 0.0391 -0.0017 0 0 10 0
0.7120 0.0383 -0.0002 0 0 10 0
0.7140 0.0373 -0.0003 0 0 10 0
0.7140 0.0366 0.0002 0 0 10 0
0.7180 0.0361 0.0001 0 0 10 0
0.7180 0.0361 0.0001 0 0 10 0
0.7080 0.0365 -0.0031 0 0 10 0
0.7260 0.0361 -0.0033 0 0 10 0
0.6980 0.0355 -0.0032 0 0 10 0
0.7080 0.0346 -0.0032 0 0 10 0
0.6920 0.0340 -0.0088 0 0 10 0
0.6920 0.0340 -0.0088 0 0 10 0
0.7320 0.0335 -0.0087 0 0 10 0
0.7220 0.0335 -0.0072 0 0 10 0
0.7020 0.0330 -0.0065 0 0 10 0
0.6940 0.0325 -0.0074 0 0 10 0
0.6840 0.0315 -0.0049 0 0 10 0
0.7080 0.0312 -0.0046 0 0 10 0
0.7260 0.0299 -0.0046 0 0 10 0
0.7140 0.0299 -0.0037 0 0 10 0
0.7140 0.0299 -0.0037 0 0 10 0
0.7060 0.0294 -0.0011 0 0 10 0
0.7060 0.0293 -0.0030 0 0 10 0
0.7100 0.0290 -0.0019 0 0 10 0
0.7040 0.0285 -0.0015 0 0 10 0
0.7220 0.0281 -0.0010 0 0 10 0
0.7220 0.0281 -0.0010 0 0 10 0
0.7080 0.0278 -0.0027 0 0 10 0
0.7000 0.0280 -0.0030 0 0 10 0
0.7180 0.0278 -0.0039 0 0 10 0
0.7160 0.0276 -0.0013 0 0 10 0
0.7000 0.0276 -0.0013 0 0 10 0
0.7220 0.0267 -0.0010 0 0 10 0
0.7240 0.0261 0.0028 0 0 10 0
0.7420 0.0259 0.0031 0 0 10 0
0.7040 0.0253 0.0028 0 0 10 0
0.7040 0.0253 0.0028 0 0 10 0
0.7080 0.0250 0.0024 0 0 10 0
0.7080 0.0250 0.0018 0 0 10 0
0.7020 0.0248 0.0012 0 0 10 0
0.7040 0.0249 0.0001 0 0 10 0
0.7040 0.0249 0.0001 0 0 10 0
0.7040 0.0242 -0.0029 0 0 10 0
0.6980 0.0242 -0.0029 0 0 10 0
0.7300 0.0237 -0.0034 0 0 10 0
0.7020 0.0230 -0.0011 0 0 10 0
0.6900 0.0227 -0.0021 0 0 10 0
0.6820 0.0224 -0.0020 0 0 10 0
0.6820 0.0224 -0.0020 0 0 10 0
0.6980 0.0214 -0.0046 0 0 10 0
0.7040 0.0211 -0.0047 0 0 10 0
0.7080 0.0209 -0.0041 0 0 10 0
0.6980 0.0208 -0.0084 0 0 10 0
0.7240 0.0209 -0.0106 0 0 10 0
0.7000 0.0211 -0.0129 0 0 10 0
0.7000 0.0211 -0.0129 0 0 10 0
0.6880 0.0211 -0.0117 0 0 10 0
0.6960 0.0201 -0.0130 0 0 10 0
0.6960 0.0192 -0.0129 0 0 10 0
0.6960 0.0192 -0.0129 0 0 10 0
0.6960 0.0180 -0.0144 0 0 10 0
0.7020 0.0176 -0.0141 0 0 10 0
0.7020 0.0176 -0.0141 0 0 10 0
0.7100 0.0166 -0.0147 0 0 10 0
0.7060 0.0163 -0.0163 0 0 10 0
0.6900 0.0157 -0.0129 0 0 10 0
0.6900 0.0157 -0.0129 0 0 10 0
0.7020 0.0160 -0.0141 0 0 10 0
0.7060 0.0157 -0.0138 0 0 10 0
0.7100 0.0149 -0.0128 0 0 10 0
0.7100 0.0149 -0.0128 0 0 10 0
0.7020 0.0134 -0.0166 0 0 10 0
0.7020 0.0134 -0.0166 0 0 10 0
0.6900 0.0131 -0.0160 0 0 10 0
0.6900 0.0131 -0.0160 0 0 10 0
0.7000 0.0127 -0.0146 0 0 10 0
0.6960 0.0125 -0.0147 0 0 10 0
0.7000 0.0126 -0.0102 0 0 10 0
0.7240 0.0126 -0.0108 0 0 10 0
0.6860 0.0121 -0.0100 0 0 10 0
0.6860 0.0121 -0.0100 0 0 10 0
0.7060 0.0110 -0.0076 0 0 10 0
0.7060 0.0110 -0.0076 0 0 10 0
0.7140 0.0109 -0.0071 0 0 10 0
0.7160 0.0099 -0.0067 0 0 10 0
0.7000 0.0092 -0.0033 0 0 10 0
0.7020 0.0084 -0.0025 0 0 10 0
0.7020 0.0081 -0.0004 0 0 10 0
0.7340 0.0080 -0.0003 0 0 10 0
0.7340 0.0080 -0.0003 0 0 10 0
0.7100 0.0078 0.0015 0 0 10 0
0.6960 0.0080 0.0029 0 0 10 0
0.7160 0.0077 0.0041 0 0 10 0
0.7160 0.0077 0.0041 0 0 10 0
0.7000 0.0067 0.0040 0 0 10 0
0.7000 0.0067 0.0040 0 0 10 0
0.6960 0.0063 0.0004 0 0 10 0
0.6960 0.0051 0.0005 0 0 0 0
