0.6434 -2.3243 -0.0261 0 0 0 30
0.6678 -2.3246 -0.0221 0 0 0 30
0.6713 -2.3242 -0.0226 0 0 0 0
0.6783 -2.3235 -0.0254 0 0 0 30
0.6678 -2.3226 -0.0196 0 0 0 30
0.6678 -2.3226 -0.0196 0 0 0 30
0.6643 -2.3231 -0.0179 0 0 0 0
0.6748 -2.3244 -0.0107 0 30 0 0
0.6818 -2.3243 -0.0089 0 30 0 0
0.6748 -2.3247 -0.0081 0 30 0 0
0.6503 -2.3251 -0.0085 0 30 0 0
0.6713 -2.3256 -0.0086 0 30 0 0
0.6643 -2.3255 -0.0088 0 30 0 0
0.6643 -2.3255 -0.0088 0 30 0 0
0.6538 -2.3253 -0.0082 0 30 0 0
0.6783 -2.3248 -0.0083 0 30 0 0
0.6503 -2.3243 -0.0080 0 30 0 0
0.6503 -2.3243 -0.0080 0 30 0 0
0.6818 -2.3246 -0.0066 0 30 0 0
0.6818 -2.3246 -0.0066 0 30 0 0
0.6503 -2.3246 -0.0064 0 30 0 0
0.6399 -2.3246 -0.0061 0 30 0 0
0.6469 -2.3240 -0.0059 0 30 0 0
0.6608 -2.3238 -0.0060 0 30 0 0
0.6608 -2.3238 -0.0060 0 30 0 0
0.6608 -2.3236 -0.0058 0 30 0 0
0.6853 -2.3237 -0.0061 0 30 0 0
0.6538 -2.3237 -0.0058 0 30 0 0
0.6538 -2.3237 -0.0058 0 30 0 0
0.6643 -2.3238 -0.0056 0 30 0 0
0.6364 -2.3236 -0.0058 0 30 0 0
0.6364 -2.3235 -0.0059 0 30 0 0
0.6503 -2.3238 -0.0053 0 30 0 0
0.6643 -2.3246 -0.0056 0 30 0 0
0.6643 -2.3246 -0.0056 0 30 0 0
0.6469 -2.3252 -0.0076 0 30 0 0
0.6713 -2.3258 -0.0077 0 30 0 0
0.6853 -2.3255 -0.0066 0 30 0 0
0.6818 -2.3245 -0.0068 0 30 0 0
0.6818 -2.3245 -0.0068 0 30 0 0
0.6503 -2.3240 -0.0061 0 30 0 0
0.6888 -2.3240 -0.0049 0 30 0 0
0.6538 -2.3243 -0.0049 0 30 0 0
0.6538 -2.3243 -0.0049 0 30 0 0
0.6608 -2.3249 -0.0040 0 30 0 0
0.6538 -2.3252 -0.0043 0 30 0 0
0.6434 -2.3255 -0.0036 0 30 0 0
0.6748 -2.3247 -0.0031 0 30 0 0
0.6748 -2.3240 -0.0053 30 30 0 0
0.6573 -2.3240 -0.0053 30 30 0 0
0.6503 -2.3235 -0.0060 30 30 0 0
0.6678 -2.3234 -0.0077 30 30 0 0
0.6748 -2.3239 -0.0080 30 30 0 0
0.6748 -2.3239 -0.0080 30 30 0 0
0.6923 -2.3247 -0.0102 0 30 0 0
0.6503 -2.3244 -0.0106 0 30 0 0
0.6573 -2.3241 -0.0108 0 30 0 0
0.6573 -2.3241 -0.0108 0 30 0 0
0.6783 -2.3236 -0.0120 0 30 0 0
0.6783 -2.3236 -0.0120 0 30 0 0
0.6538 -2.3235 -0.0119 0 30 0 0
0.6538 -2.3235 -0.0119 0 30 0 0
0.6678 -2.3235 -0.0113 0 30 0 0
0.6853 -2.3238 -0.0109 0 30 0 0
0.6608 -2.3233 -0.0093 0 30 0 0
0.6434 -2.3230 -0.0092 0 30 0 0
0.6958 -2.3229 -0.0083 0 30 0 0
0.6818 -2.3231 -0.0082 0 30 0 0
0.6818 -2.3231 -0.0082 0 30 0 0
0.6783 -2.3231 -0.0086 0 30 0 0
0.6818 -2.3234 -0.0086 0 30 0 0
0.6818 -2.3230 -0.0095 0 30 0 0
0.6748 -2.3229 -0.0086 0 30 0 0
0.6713 -2.3227 -0.0088 0 30 0 0
0.6713 -2.3227 -0.0088 0 30 0 0
0.6748 -2.3231 -0.0090 0 30 0 0
0.6538 -2.3236 -0.0092 0 30 0 0
0.6643 -2.3236 -0.0088 0 30 0 0
0.6643 -2.3236 -0.0088 0 30 0 0
0.6538 -2.3232 -0.0090 0 30 0 0
0.6469 -2.3232 -0.0110 0 30 0 0
0.6259 -2.3230 -0.0114 0 30 0 0
0.6538 -2.3232 -0.0100 0 30 0 0
0.6748 -2.3230 -0.0100 0 30 0 0
0.6853 -2.3226 -0.0102 0 30 0 0
0.6853 -2.3226 -0.0102 0 30 0 0
0.6748 -2.3223 -0.0106 0 30 0 0
0.6783 -2.3222 -0.0100 0 30 0 0
0.6783 -2.3225 -0.0104 0 30 0 0
0.6783 -2.3225 -0.0104 0 30 0 0
0.6643 -2.3230 -0.0105 0 30 0 0
0.6503 -2.3233 -0.0106 0 30 0 0
0.6608 -2.3235 -0.0109 0 30 0 0
0.6399 -2.3236 -0.0130 0 30 0 0
0.6713 -2.3239 -0.0132 0 30 0 0
0.6713 -2.3239 -0.0132 0 30 0 0
0.6678 -2.3243 -0.0132 0 30 0 0
0.6573 -2.3242 -0.0135 0 30 0 0
0.6643 -2.3240 -0.0137 0 0 0 0
0.6853 -2.3234 -0.0136 0 30 0 0
0.6503 -2.3233 -0.0136 0 30 0 0
0.6503 -2.3233 -0.0136 0 30 0 0
0.6503 -2.3233 -0.0136 0 30 0 0
0.6748 -2.3233 -0.0139 0 30 0 0
0.6748 -2.3233 -0.0154 0 30 0 0
0.6748 -2.3233 -0.0154 0 30 0 0
0.6643 -2.3234 -0.0165 0 30 0 0
0.6643 -2.3234 -0.0165 0 30 0 0
0.6503 -2.3233 -0.0164 0 30 0 0
0.6678 -2.3233 -0.0192 0 30 0 0
0.6224 -2.3231 -0.0190 0 30 0 0
0.6224 -2.3231 -0.0190 0 30 0 0
0.6853 -2.3229 -0.0179 0 30 0 0
0.6538 -2.3227 -0.0178 0 30 0 0
0.6084 -2.3227 -0.0132 0 30 0 0
0.6084 -2.3227 -0.0132 0 30 0 0
0.6643 -2.3234 -0.0132 0 30 0 0
0.6329 -2.3240 -0.0145 0 30 0 0
0.6748 -2.3238 -0.0143 0 0 0 0
0.6538 -2.3241 -0.0128 0 30 0 0
0.6748 -2.3240 -0.0165 0 30 0 0
0.6434 -2.3240 -0.0165 0 30 0 0
0.6434 -2.3240 -0.0165 0 0 0 0
0.6469 -2.3250 -0.0207 0 30 0 0
0.6329 -2.3239 -0.0160 0 0 0 0
0.6469 -2.3233 -0.0203 0 30 0 0
0.6434 -2.3234 -0.0156 0 30 0 0
0.6329 -2.3228 -0.0145 0 30 0 0
0.6329 -2.3228 -0.0145 0 0 0 0
0.6503 -2.3235 -0.0136 0 30 0 0
0.6783 -2.3224 -0.0111 0 30 0 0
0.6783 -2.3224 -0.0111 0 30 0 0
0.6783 -2.3224 -0.0111 0 0 0 0
0.6608 -2.3224 -0.0087 0 30 0 0
0.6608 -2.3224 -0.0118 0 30 0 0
0.6853 -2.3235 -0.0143 0 0 0 0
0.6573 -2.3236 -0.0154 0 30 0 0
0.6643 -2.3234 -0.0150 0 30 0 0
0.6294 -2.3234 -0.0136 0 30 0 0
0.6259 -2.3236 -0.0120 0 0 0 0
0.6329 -2.3233 0.0013 0 0 0 30
0.6399 -2.3238 -0.0027 0 0 0 30
0.6573 -2.3233 -0.0061 0 0 0 0
0.6538 -2.3234 -0.0048 0 0 0 30
0.6538 -2.3238 -0.0066 0 0 0 30
0.6573 -2.3238 -0.0049 0 0 0 30
0.6503 -2.3240 -0.0050 0 0 0 0
0.6678 -2.3243 -0.0065 0 0 0 30
0.6469 -2.3241 -0.0028 0 0 0 30
0.6399 -2.3243 0.0001 0 0 0 30
0.6399 -2.3243 0.0001 0 0 0 0
0.6189 -2.3242 0.0036 0 0 0 30
0.6189 -2.3245 0.0100 0 0 0 30
0.6259 -2.3247 0.0106 0 0 0 30
0.6259 -2.3247 0.0106 0 0 0 0
0.6434 -2.3240 0.0113 0 0 0 30
0.6399 -2.3250 0.0111 0 0 0 30
0.6049 -2.3248 0.0114 0 0 0 0
0.6224 -2.3252 0.0164 0 0 0 -30
0.6503 -2.3264 0.0194 0 0 0 -30
0.6434 -2.3262 0.0187 0 0 0 -30
0.6364 -2.3258 0.0179 0 0 0 0
0.6364 -2.3249 0.0190 0 0 0 -30
0.6399 -2.3249 0.0148 0 0 0 -30
0.6643 -2.3249 0.0131 0 0 0 -30
0.6364 -2.3252 0.0109 0 0 0 -30
0.6294 -2.3251 0.0102 0 0 0 0
0.6189 -2.3246 0.0041 0 0 0 -30
0.6119 -2.3257 0.0013 0 0 0 -30
0.6329 -2.3249 0.0047 0 0 0 0
0.6294 -2.3241 0.0035 0 30 0 0
0.6469 -2.3245 0.0030 0 30 0 0
0.6189 -2.3243 0.0035 0 30 0 0
0.6364 -2.3243 0.0035 0 30 0 0
0.6469 -2.3241 0.0061 0 0 0 0
0.6154 -2.3242 0.0073 0 30 0 0
0.6329 -2.3242 0.0048 0 30 0 0
0.6469 -2.3240 0.0049 0 0 0 0
0.6503 -2.3231 0.0036 0 30 0 0
0.6503 -2.3245 0.0046 0 30 0 0
0.6434 -2.3245 0.0046 0 0 0 0
0.6853 -2.3240 0.0043 0 30 0 0
0.6783 -2.3226 0.0026 0 30 0 0
0.6783 -2.3226 0.0026 0 30 0 0
0.6713 -2.3226 0.0024 0 30 0 0
0.6469 -2.3228 0.0016 0 0 0 0
0.6643 -2.3236 0.0005 0 30 0 0
0.6573 -2.3233 0.0009 0 30 0 0
0.6259 -2.3232 0.0006 0 30 0 0
0.6294 -2.3232 0.0012 0 0 0 0
0.6538 -2.3234 0.0004 0 30 0 0
0.6503 -2.3237 -0.0016 0 30 0 0
0.6434 -2.3241 -0.0020 0 30 0 0
0.6434 -2.3241 -0.0020 0 0 0 0
0.6364 -2.3233 -0.0029 0 30 0 0
0.6364 -2.3218 -0.0001 0 30 0 0
0.6748 -2.3218 0.0001 0 30 0 0
0.6748 -2.3218 0.0001 0 0 0 0
0.6573 -2.3216 -0.0033 0 30 0 0
0.6923 -2.3209 -0.0055 0 30 0 0
0.6783 -2.3206 -0.0054 0 30 0 0
0.6643 -2.3208 -0.0031 0 0 0 0
0.7028 -2.3233 -0.0013 0 30 0 0
0.6678 -2.3243 0.0002 0 0 0 0
0.6678 -2.3256 -0.0014 0 0 0 0
0.6329 -2.3222 -0.0010 30 0 0 0
0.6329 -2.3227 -0.0009 30 0 0 0
0.6434 -2.3227 -0.0018 30 0 0 0
0.6434 -2.3227 -0.0018 0 0 0 0
0.6154 -2.3234 -0.0031 30 0 0 0
0.6119 -2.3247 -0.0004 30 0 0 0
0.6119 -2.3247 -0.0004 30 0 0 0
0.6049 -2.3249 0.0069 0 0 0 0
0.5979 -2.3245 0.0222 0 30 0 0
0.5944 -2.3241 0.0255 0 0 0 0
0.6259 -2.3234 0.0254 0 30 0 0
0.6259 -2.3242 0.0249 0 30 0 0
0.6294 -2.3242 0.0229 0 30 0 0
0.6084 -2.3240 0.0231 0 30 0 0
0.6189 -2.3239 0.0248 0 0 0 0
0.6329 -2.3241 0.0262 0 30 0 0
0.6329 -2.3235 0.0260 0 30 0 0
0.6364 -2.3235 0.0261 0 30 0 0
0.6154 -2.3241 0.0267 0 30 0 0
0.6224 -2.3241 0.0268 0 0 0 0
0.6154 -2.3245 0.0264 0 30 0 0
0.5734 -2.3240 0.0256 0 30 0 0
0.5734 -2.3240 0.0256 0 0 0 0
0.5944 -2.3231 0.0244 0 30 0 0
0.6399 -2.3236 0.0261 0 30 0 0
0.6189 -2.3235 0.0264 0 0 0 0
0.6329 -2.3236 0.0272 0 30 0 0
0.6014 -2.3236 0.0292 0 30 0 0
0.6014 -2.3236 0.0292 0 30 0 0
0.6259 -2.3235 0.0292 0 0 0 0
0.6049 -2.3238 0.0287 -30 0 0 0
0.6399 -2.3233 0.0275 -30 0 0 0
0.5944 -2.3230 0.0281 -30 0 0 0
0.6469 -2.3230 0.0281 -30 0 0 0
0.6154 -2.3229 0.0271 0 0 0 0
0.6224 -2.3236 0.0275 -30 0 0 0
0.6119 -2.3240 0.0268 -30 0 0 0
0.6154 -2.3237 0.0259 -30 0 0 0
0.6154 -2.3237 0.0259 -30 0 0 0
0.6364 -2.3237 0.0255 -30 0 0 0
0.6259 -2.3240 0.0230 0 0 0 0
0.6154 -2.3254 0.0229 -30 0 0 0
0.6259 -2.3252 0.0222 -30 0 0 0
0.6364 -2.3251 0.0220 -30 0 0 0
0.6294 -2.3251 0.0214 -30 0 0 0
0.6294 -2.3251 0.0214 -30 0 0 0
0.6049 -2.3249 0.0221 0 0 0 0
0.6434 -2.3238 0.0241 0 30 0 0
0.6224 -2.3244 0.0168 0 30 0 0
0.5979 -2.3242 0.0167 0 30 0 0
0.5909 -2.3242 0.0129 0 30 0 0
0.5909 -2.3242 0.0129 0 30 0 0
0.6154 -2.3239 0.0132 0 0 0 0
0.6224 -2.3241 0.0123 0 30 0 0
0.6469 -2.3242 0.0117 0 30 0 0
0.6399 -2.3240 0.0091 0 0 0 0
0.6224 -2.3249 0.0072 0 30 0 0
0.6434 -2.3241 0.0107 0 30 0 0
0.6224 -2.3238 0.0116 0 30 0 0
0.6399 -2.3236 0.0122 0 0 0 0
0.6224 -2.3231 0.0136 0 30 0 0
0.6643 -2.3228 0.0127 0 30 0 0
0.6329 -2.3231 0.0130 0 30 0 0
0.6189 -2.3233 0.0133 0 30 0 0
0.6259 -2.3233 0.0137 0 30 0 0
0.6259 -2.3233 0.0137 0 30 0 0
0.6294 -2.3232 0.0140 0 0 0 0
0.6329 -2.3231 0.0152 0 30 0 0
0.6119 -2.3231 0.0153 0 30 0 0
0.6678 -2.3224 0.0158 0 30 0 0
0.6678 -2.3223 0.0162 0 30 0 0
0.6434 -2.3223 0.0162 0 30 0 0
0.6434 -2.3221 0.0175 0 30 0 0
0.6469 -2.3224 0.0180 0 0 0 0
0.6608 -2.3231 0.0205 0 30 0 0
0.6119 -2.3251 0.0195 0 30 0 0
0.6084 -2.3237 0.0195 0 0 0 0
0.6014 -2.3242 0.0106 0 30 0 0
0.6503 -2.3239 0.0119 0 30 0 0
0.6643 -2.3223 0.0113 0 30 0 0
0.6364 -2.3216 0.0121 0 0 0 0
0.6573 -2.3219 0.0112 0 30 0 0
0.6748 -2.3230 0.0101 0 30 0 0
0.6643 -2.3228 0.0114 0 0 0 0
0.6294 -2.3227 0.0108 0 30 0 0
0.6154 -2.3237 0.0104 0 30 0 0
0.6154 -2.3237 0.0104 0 30 0 0
0.6503 -2.3236 0.0092 0 30 0 0
0.6503 -2.3236 0.0092 0 30 0 0
0.6329 -2.3235 0.0087 0 30 0 0
0.6189 -2.3233 0.0075 0 30 0 0
0.6329 -2.3233 0.0080 0 30 0 0
0.6329 -2.3236 0.0094 0 30 0 0
0.6434 -2.3242 0.0111 0 30 0 0
0.6434 -2.3242 0.0111 0 30 0 0
0.6399 -2.3243 0.0124 0 0 0 0
0.6049 -2.3240 0.0142 0 30 0 0
0.5734 -2.3239 0.0148 0 30 0 0
0.5944 -2.3242 0.0157 0 30 0 0
0.6084 -2.3245 0.0180 0 30 0 0
0.5909 -2.3245 0.0184 0 0 0 0
0.6399 -2.3238 0.0214 0 30 0 0
0.5804 -2.3238 0.0217 0 30 0 0
0.6154 -2.3236 0.0216 0 30 0 0
0.6154 -2.3236 0.0216 0 30 0 0
0.6014 -2.3240 0.0233 0 30 0 0
0.5839 -2.3239 0.0238 0 30 0 0
0.6119 -2.3238 0.0237 0 30 0 0
0.6084 -2.3239 0.0237 0 30 0 0
0.6084 -2.3239 0.0237 0 30 0 0
0.5909 -2.3238 0.0272 0 30 0 0
0.5944 -2.3236 0.0266 0 30 0 0
0.5909 -2.3234 0.0265 0 30 0 0
0.5699 -2.3231 0.0247 0 30 0 0
0.5699 -2.3231 0.0247 0 30 0 0
0.5699 -2.3231 0.0242 0 30 0 0
0.5874 -2.3236 0.0239 0 30 0 0
0.5804 -2.3238 0.0236 0 0 0 0
0.6189 -2.3247 0.0247 0 -30 0 0
0.5804 -2.3244 0.0240 0 -30 0 0
0.5944 -2.3240 0.0241 0 -30 0 0
0.6154 -2.3239 0.0244 0 -30 0 0
0.6084 -2.3236 0.0247 0 -30 0 0
0.5944 -2.3234 0.0252 0 -30 0 0
0.5944 -2.3234 0.0252 0 -30 0 0
0.5874 -2.3237 0.0250 0 -30 0 0
0.6364 -2.3243 0.0266 0 -30 0 0
0.5944 -2.3249 0.0270 0 -30 0 0
0.5944 -2.3252 0.0337 0 -30 0 0
0.5944 -2.3252 0.0337 0 -30 0 0
0.6189 -2.3249 0.0340 0 -30 0 0
0.6154 -2.3241 0.0368 0 -30 0 0
0.6049 -2.3236 0.0376 0 -30 0 0
0.6049 -2.3236 0.0376 0 -30 0 0
0.5944 -2.3235 0.0395 0 -30 0 0
0.6084 -2.3234 0.0394 0 -30 0 0
0.6294 -2.3229 0.0397 0 -30 0 0
0.6224 -2.3228 0.0396 0 -30 0 0
0.5874 -2.3230 0.0429 0 -30 0 0
0.5874 -2.3230 0.0429 0 -30 0 0
0.6224 -2.3231 0.0434 0 -30 0 0
0.6154 -2.3238 0.0448 0 -30 0 0
0.6189 -2.3238 0.0450 0 -30 0 0
0.6189 -2.3238 0.0450 0 -30 0 0
0.6119 -2.3243 0.0452 0 -30 0 0
0.5979 -2.3240 0.0442 0 -30 0 0
0.6119 -2.3236 0.0434 0 -30 0 0
0.6224 -2.3233 0.0449 0 -30 0 0
0.6224 -2.3233 0.0449 0 -30 0 0
0.6294 -2.3233 0.0458 0 -30 0 0
0.6469 -2.3237 0.0456 0 -30 0 0
0.6364 -2.3250 0.0452 0 -30 0 0
0.6294 -2.3252 0.0440 0 -30 0 0
0.6294 -2.3252 0.0440 0 -30 0 0
0.5979 -2.3245 0.0427 0 -30 0 0
0.5944 -2.3236 0.0439 0 -30 0 0
0.6259 -2.3231 0.0434 0 -30 0 0
0.5769 -2.3231 0.0437 0 -30 0 0
0.6154 -2.3233 0.0428 0 -30 0 0
0.6259 -2.3236 0.0396 0 -30 0 0
0.6119 -2.3236 0.0395 0 -30 0 0
0.6119 -2.3236 0.0395 0 -30 0 0
0.6154 -2.3236 0.0344 0 -30 0 0
0.6329 -2.3236 0.0344 0 -30 0 0
0.6014 -2.3238 0.0328 0 -30 0 0
0.6154 -2.3243 0.0317 0 -30 0 0
0.6014 -2.3243 0.0301 0 -30 0 0
0.6014 -2.3243 0.0301 0 -30 0 0
0.5979 -2.3242 0.0305 0 -30 0 0
0.6189 -2.3240 0.0317 0 -30 0 0
0.6224 -2.3239 0.0320 0 -30 0 0
0.6189 -2.3238 0.0335 0 -30 0 0
0.6189 -2.3238 0.0335 0 -30 0 0
0.6434 -2.3234 0.0343 0 -30 0 0
0.6469 -2.3229 0.0338 0 -30 0 0
0.6119 -2.3224 0.0341 0 -30 0 0
0.6119 -2.3224 0.0341 0 -30 0 0
0.6364 -2.3223 0.0336 0 -30 0 0
0.6154 -2.3225 0.0341 0 -30 0 0
0.6224 -2.3227 0.0338 0 -30 0 0
0.6119 -2.3228 0.0339 0 -30 0 0
0.6259 -2.3227 0.0341 0 -30 0 0
0.6469 -2.3228 0.0357 0 -30 0 0
0.6469 -2.3228 0.0357 0 -30 0 0
0.6189 -2.3227 0.0355 0 -30 0 0
0.6049 -2.3225 0.0360 0 -30 0 0
0.6119 -2.3231 0.0358 0 -30 0 0
0.6119 -2.3231 0.0358 0 -30 0 0
0.5979 -2.3231 0.0392 0 -30 0 0
0.5979 -2.3231 0.0392 0 -30 0 0
0.6084 -2.3227 0.0390 0 -30 0 0
0.6189 -2.3226 0.0395 0 -30 0 0
0.6224 -2.3227 0.0390 0 -30 0 0
0.6154 -2.3227 0.0387 0 -30 0 0
0.6189 -2.3229 0.0379 0 -30 0 0
0.6294 -2.3227 0.0384 0 -30 0 0
0.6224 -2.3228 0.0381 0 -30 0 0
0.6224 -2.3228 0.0381 0 -30 0 0
0.6154 -2.3229 0.0369 0 -30 0 0
0.6259 -2.3230 0.0366 0 -30 0 0
0.6224 -2.3231 0.0377 0 -30 0 0
0.6224 -2.3231 0.0377 0 -30 0 0
0.6119 -2.3234 0.0370 0 -30 0 0
0.6294 -2.3237 0.0356 0 -30 0 0
0.6119 -2.3239 0.0347 0 -30 0 0
0.5769 -2.3234 0.0337 0 -30 0 0
0.5769 -2.3234 0.0337 0 -30 0 0
0.6259 -2.3230 0.0335 0 -30 0 0
0.6329 -2.3231 0.0341 0 -30 0 0
0.6224 -2.3231 0.0337 0 -30 0 0
0.6329 -2.3233 0.0340 0 -30 0 0
0.6014 -2.3236 0.0341 0 -30 0 0
0.5944 -2.3238 0.0345 0 -30 0 0
0.5944 -2.3238 0.0345 0 -30 0 0
0.5839 -2.3242 0.0349 0 -30 0 0
0.6119 -2.3248 0.0340 0 -30 0 0
0.6119 -2.3248 0.0340 0 -30 0 0
0.6084 -2.3249 0.0345 0 -30 0 0
0.6084 -2.3246 0.0343 0 -30 0 0
0.5769 -2.3247 0.0340 0 -30 0 0
0.5804 -2.3242 0.0328 0 -30 0 0
0.5979 -2.3243 0.0319 0 -30 0 0
0.5909 -2.3242 0.0309 0 -30 0 0
0.5909 -2.3242 0.0309 0 -30 0 0
0.6014 -2.3244 0.0306 0 -30 0 0
0.6014 -2.3241 0.0320 0 -30 0 0
0.6084 -2.3242 0.0318 0 -30 0 0
0.6084 -2.3242 0.0318 0 -30 0 0
0.5979 -2.3239 0.0311 0 -30 0 0
0.6189 -2.3240 0.0309 0 -30 0 0
0.6189 -2.3236 0.0327 0 -30 0 0
0.5874 -2.3235 0.0321 0 -30 0 0
0.6119 -2.3240 0.0326 0 -30 0 0
0.5839 -2.3243 0.0325 0 -30 0 0
0.5664 -2.3242 0.0329 0 -30 0 0
0.5734 -2.3244 0.0331 0 -30 0 0
0.5524 -2.3244 0.0327 0 -30 0 0
0.5524 -2.3244 0.0327 0 -30 0 0
0.5664 -2.3245 0.0338 0 -30 0 0
0.5664 -2.3250 0.0339 0 -30 0 0
0.5804 -2.3254 0.0338 0 -30 0 0
0.5804 -2.3254 0.0338 0 -30 0 0
0.5874 -2.3254 0.0335 0 -30 0 0
0.5839 -2.3253 0.0330 0 -30 0 0
0.5734 -2.3253 0.0327 0 -30 0 0
0.5839 -2.3247 0.0330 0 -30 0 0
0.5839 -2.3247 0.0330 0 -30 0 0
0.5629 -2.3247 0.0323 0 -30 0 0
0.5664 -2.3247 0.0323 0 -30 0 0
0.5769 -2.3247 0.0323 0 -30 0 0
0.5804 -2.3243 0.0317 0 -30 0 0
0.5909 -2.3238 0.0307 0 -30 0 0
0.5909 -2.3238 0.0307 0 -30 0 0
0.5559 -2.3233 0.0299 0 -30 0 0
0.5420 -2.3226 0.0304 0 -30 0 0
0.5420 -2.3226 0.0304 0 -30 0 0
0.5490 -2.3227 0.0299 0 -30 0 0
0.5874 -2.3234 0.0294 0 -30 0 0
0.5490 -2.3235 0.0297 0 -30 0 0
0.5490 -2.3235 0.0297 0 -30 0 0
0.5559 -2.3230 0.0294 0 -30 0 0
0.5629 -2.3226 0.0295 0 -30 0 0
0.5944 -2.3224 0.0300 0 -30 0 0
0.5839 -2.3225 0.0307 0 -30 0 0
0.5804 -2.3228 0.0300 0 -30 0 0
0.5769 -2.3227 0.0319 0 0 0 0
0.5629 -2.3222 0.0340 0 -30 0 0
0.6119 -2.3234 0.0435 0 -30 0 0
0.6014 -2.3232 0.0440 0 -30 0 0
0.5839 -2.3233 0.0439 0 -30 0 0
0.5839 -2.3235 0.0422 0 -30 0 0
0.5839 -2.3235 0.0422 0 -30 0 0
0.5874 -2.3238 0.0407 0 -30 0 0
0.5944 -2.3240 0.0396 0 -30 0 0
0.5944 -2.3242 0.0379 0 -30 0 0
0.6014 -2.3238 0.0381 0 -30 0 0
0.6014 -2.3234 0.0368 0 -30 0 0
0.6014 -2.3234 0.0368 0 -30 0 0
0.5734 -2.3235 0.0358 0 -30 0 0
0.5629 -2.3234 0.0346 0 -30 0 0
0.5629 -2.3234 0.0346 0 -30 0 0
0.5769 -2.3233 0.0367 0 -30 0 0
0.5559 -2.3237 0.0361 0 -30 0 0
0.5944 -2.3241 0.0350 0 -30 0 0
0.5839 -2.3241 0.0356 0 -30 0 0
0.5839 -2.3241 0.0356 0 -30 0 0
0.5420 -2.3240 0.0371 0 -30 0 0
0.5734 -2.3234 0.0369 0 -30 0 0
0.5944 -2.3232 0.0372 0 -30 0 0
0.5804 -2.3232 0.0369 0 -30 0 0
0.5804 -2.3232 0.0369 0 -30 0 0
0.5804 -2.3232 0.0364 0 -30 0 0
0.5874 -2.3231 0.0354 0 -30 0 0
0.5804 -2.3234 0.0366 0 -30 0 0
0.5769 -2.3237 0.0359 0 -30 0 0
0.5769 -2.3237 0.0359 0 -30 0 0
0.5734 -2.3242 0.0363 0 -30 0 0
0.5804 -2.3245 0.0365 0 -30 0 0
0.5804 -2.3245 0.0365 0 -30 0 0
0.6084 -2.3239 0.0368 0 -30 0 0
0.5734 -2.3236 0.0361 0 -30 0 0
0.5420 -2.3238 0.0353 0 -30 0 0
0.5280 -2.3238 0.0347 0 -30 0 0
0.5280 -2.3238 0.0347 0 -30 0 0
0.5734 -2.3241 0.0340 0 -30 0 0
0.5455 -2.3238 0.0341 0 -30 0 0
0.5664 -2.3235 0.0337 0 -30 0 0
0.5664 -2.3235 0.0337 0 -30 0 0
0.5944 -2.3231 0.0325 0 -30 0 0
0.5909 -2.3228 0.0330 0 -30 0 0
0.5804 -2.3226 0.0323 0 -30 0 0
0.5455 -2.3227 0.0309 0 -30 0 0
0.5734 -2.3227 0.0318 0 -30 0 0
0.5734 -2.3227 0.0318 0 -30 0 0
0.5350 -2.3229 0.0334 0 -30 0 0
0.5909 -2.3232 0.0328 0 -30 0 0
0.5420 -2.3235 0.0330 0 -30 0 0
0.5420 -2.3235 0.0330 0 -30 0 0
0.5455 -2.3233 0.0336 0 -30 0 0
0.5559 -2.3231 0.0334 0 -30 0 0
0.5629 -2.3228 0.0337 0 -30 0 0
0.5804 -2.3229 0.0355 0 -30 0 0
0.5455 -2.3232 0.0393 0 -30 0 0
0.5909 -2.3232 0.0394 0 0 0 0
0.5594 -2.3231 0.0419 30 0 0 0
0.5874 -2.3243 0.0343 30 0 0 0
0.5734 -2.3235 0.0285 30 0 0 0
0.6014 -2.3239 0.0253 30 0 0 0
0.5629 -2.3242 0.0248 30 0 0 0
0.5664 -2.3245 0.0277 30 0 0 0
0.5909 -2.3246 0.0276 30 0 0 0
0.5909 -2.3246 0.0276 30 0 0 0
0.5804 -2.3244 0.0257 30 0 0 0
0.5629 -2.3244 0.0286 30 0 0 0
0.5629 -2.3244 0.0286 30 0 0 0
0.5874 -2.3242 0.0338 30 0 0 0
0.5909 -2.3245 0.0342 30 0 0 0
0.5734 -2.3245 0.0314 30 0 0 0
0.5734 -2.3245 0.0314 30 0 0 0
0.5839 -2.3246 0.0328 30 0 0 0
0.5769 -2.3245 0.0337 30 0 0 0
0.5944 -2.3243 0.0327 30 0 0 0
0.5909 -2.3247 0.0279 30 0 0 0
0.5699 -2.3249 0.0296 30 0 0 0
0.5944 -2.3248 0.0281 30 0 0 0
0.5734 -2.3245 0.0265 30 0 0 0
0.5699 -2.3243 0.0272 30 0 0 0
0.6084 -2.3240 0.0273 30 0 0 0
0.6084 -2.3240 0.0273 30 0 0 0
0.6014 -2.3242 0.0264 30 0 0 0
0.6084 -2.3242 0.0264 30 0 0 0
0.6224 -2.3243 0.0265 30 0 0 0
0.6224 -2.3243 0.0265 30 0 0 0
0.6119 -2.3242 0.0298 30 0 0 0
0.6119 -2.3242 0.0298 30 0 0 0
0.5909 -2.3239 0.0298 30 0 0 0
0.6084 -2.3240 0.0296 30 0 0 0
0.6084 -2.3241 0.0301 30 0 0 0
0.5979 -2.3242 0.0296 30 0 0 0
0.5804 -2.3249 0.0299 30 0 0 0
0.5804 -2.3249 0.0299 30 0 0 0
0.5804 -2.3249 0.0296 30 0 0 0
0.6014 -2.3242 0.0302 30 0 0 0
0.6049 -2.3236 0.0300 30 0 0 0
0.6049 -2.3236 0.0300 30 0 0 0
0.5839 -2.3231 0.0309 30 0 0 0
0.6084 -2.3231 0.0318 30 0 0 0
0.6049 -2.3234 0.0287 30 0 0 0
0.6049 -2.3234 0.0287 30 0 0 0
0.6189 -2.3239 0.0278 30 0 0 0
0.6154 -2.3240 0.0299 30 0 0 0
0.6119 -2.3243 0.0273 30 0 0 0
0.6119 -2.3240 0.0274 30 0 0 0
0.6119 -2.3240 0.0274 30 0 0 0
0.6364 -2.3234 0.0262 30 0 0 0
0.6189 -2.3234 0.0269 30 0 0 0
0.6084 -2.3238 0.0226 30 0 0 0
0.5734 -2.3245 0.0226 30 0 0 0
0.5944 -2.3244 0.0220 30 0 0 0
0.5909 -2.3245 0.0260 30 0 0 0
0.5909 -2.3245 0.0260 30 0 0 0
0.5839 -2.3244 0.0287 30 0 0 0
0.6224 -2.3246 0.0287 30 0 0 0
0.6084 -2.3249 0.0315 30 0 0 0
0.6084 -2.3248 0.0305 30 0 0 0
0.5734 -2.3248 0.0305 30 0 0 0
0.5804 -2.3245 0.0314 30 0 0 0
0.5909 -2.3243 0.0334 30 0 0 0
0.5734 -2.3245 0.0335 30 0 0 0
0.5734 -2.3245 0.0335 30 0 0 0
0.5909 -2.3244 0.0370 30 0 0 0
0.6154 -2.3238 0.0398 30 0 0 0
0.6434 -2.3238 0.0423 30 0 0 0
0.5944 -2.3238 0.0415 30 0 0 0
0.5559 -2.3235 0.0428 30 0 0 0
0.6119 -2.3235 0.0414 30 0 0 0
0.6119 -2.3235 0.0414 30 0 0 0
0.6154 -2.3237 0.0405 30 0 0 0
0.5909 -2.3237 0.0402 30 0 0 0
0.6329 -2.3231 0.0454 30 0 0 0
0.6329 -2.3231 0.0454 0 0 0 0
0.5769 -2.3236 0.0513 30 0 0 0
0.6189 -2.3229 0.0498 30 0 0 0
0.5804 -2.3233 0.0492 30 0 0 0
0.5804 -2.3233 0.0492 30 0 0 0
0.5874 -2.3231 0.0473 30 0 0 0
0.6014 -2.3229 0.0470 30 0 0 0
0.5979 -2.3222 0.0457 30 0 0 0
0.5979 -2.3222 0.0457 30 0 0 0
0.6049 -2.3220 0.0461 30 0 0 0
0.5944 -2.3221 0.0447 30 0 0 0
0.6189 -2.3224 0.0453 30 0 0 0
0.6224 -2.3224 0.0440 30 0 0 0
0.6224 -2.3224 0.0440 30 0 0 0
0.6119 -2.3228 0.0447 30 0 0 0
0.5804 -2.3232 0.0433 30 0 0 0
0.6119 -2.3236 0.0423 30 0 0 0
0.6294 -2.3238 0.0435 30 0 0 0
0.6294 -2.3243 0.0429 30 0 0 0
0.5979 -2.3243 0.0429 0 0 0 0
0.6154 -2.3242 0.0423 30 0 0 0
0.6049 -2.3242 0.0409 30 0 0 0
0.6294 -2.3242 0.0394 30 0 0 0
0.6294 -2.3242 0.0394 30 0 0 0
0.6154 -2.3243 0.0395 30 0 0 0
0.5979 -2.3243 0.0407 0 0 0 0
0.6154 -2.3233 0.0442 30 0 0 0
0.5804 -2.3234 0.0442 30 0 0 0
0.6119 -2.3234 0.0432 30 0 0 0
0.6259 -2.3232 0.0447 30 0 0 0
0.6259 -2.3232 0.0447 0 0 0 0
0.6364 -2.3238 0.0438 30 0 0 0
0.6294 -2.3244 0.0443 30 0 0 0
0.5734 -2.3243 0.0429 30 0 0 0
0.5734 -2.3239 0.0457 30 0 0 0
0.6119 -2.3239 0.0457 30 0 0 0
0.6259 -2.3239 0.0456 0 0 0 0
0.6329 -2.3236 0.0436 30 0 0 0
0.6259 -2.3229 0.0423 30 0 0 0
0.6259 -2.3229 0.0423 30 0 0 0
0.6189 -2.3233 0.0415 30 0 0 0
0.6399 -2.3231 0.0434 0 0 0 0
0.6643 -2.3230 0.0427 30 0 0 0
0.6364 -2.3235 0.0457 30 0 0 0
0.6224 -2.3231 0.0499 30 0 0 0
0.6329 -2.3225 0.0494 30 0 0 0
0.6469 -2.3226 0.0486 30 0 0 0
0.6469 -2.3226 0.0486 30 0 0 0
0.6259 -2.3233 0.0473 0 0 0 0
0.6224 -2.3239 0.0439 30 0 0 0
0.6119 -2.3230 0.0408 30 0 0 0
0.6434 -2.3230 0.0408 30 0 0 0
0.6189 -2.3228 0.0393 30 0 0 0
0.6364 -2.3234 0.0390 30 0 0 0
0.6364 -2.3234 0.0390 0 0 0 0
0.6399 -2.3235 0.0348 30 0 0 0
0.6224 -2.3227 0.0309 30 0 0 0
0.6469 -2.3231 0.0307 30 0 0 0
0.6469 -2.3231 0.0307 30 0 0 0
0.6469 -2.3244 0.0297 30 0 0 0
0.6154 -2.3247 0.0294 30 0 0 0
0.6364 -2.3252 0.0273 0 0 0 0
0.6294 -2.3227 0.0192 30 0 0 0
0.6189 -2.3228 0.0221 30 0 0 0
0.6364 -2.3231 0.0250 30 0 0 0
0.6294 -2.3230 0.0261 30 0 0 0
0.6224 -2.3229 0.0319 30 0 0 0
0.6434 -2.3227 0.0321 30 0 0 0
0.6154 -2.3229 0.0324 30 0 0 0
0.6154 -2.3229 0.0324 0 0 0 0
0.6119 -2.3227 0.0280 30 0 0 0
0.6399 -2.3226 0.0245 30 0 0 0
0.6119 -2.3228 0.0247 30 0 0 0
0.6119 -2.3228 0.0247 30 0 0 0
0.6399 -2.3229 0.0245 0 0 0 0
0.6399 -2.3224 0.0218 30 0 0 0
0.6643 -2.3226 0.0241 30 0 0 0
0.6364 -2.3237 0.0200 30 0 0 0
0.6364 -2.3237 0.0200 30 0 0 0
0.6608 -2.3247 0.0180 0 0 0 0
0.6434 -2.3243 0.0212 -30 0 0 0
0.6259 -2.3238 0.0114 -30 0 0 0
0.6503 -2.3241 0.0040 -30 0 0 0
0.6538 -2.3245 -0.0018 -30 0 0 0
0.6538 -2.3245 -0.0018 -30 0 0 0
0.6783 -2.3253 -0.0009 0 0 0 0
0.6469 -2.3231 -0.0247 0 0 0 30
0.6573 -2.3235 -0.0197 0 0 0 30
0.6503 -2.3235 -0.0218 0 0 0 0
0.6399 -2.3240 -0.0089 0 0 0 -30
0.6538 -2.3240 -0.0080 0 0 0 -30
0.6503 -2.3241 -0.0073 0 0 0 0
0.6783 -2.3247 -0.0144 0 30 0 0
0.6503 -2.3238 -0.0127 0 30 0 0
0.6713 -2.3236 -0.0135 0 30 0 0
0.6608 -2.3242 -0.0144 0 30 0 0
0.6818 -2.3253 -0.0144 0 30 0 0
0.6818 -2.3258 -0.0150 0 30 0 0
0.6329 -2.3259 -0.0151 0 30 0 0
0.6329 -2.3259 -0.0151 0 30 0 0
0.6294 -2.3256 -0.0145 0 30 0 0
0.6469 -2.3254 -0.0156 0 30 0 0
0.6294 -2.3250 -0.0154 0 30 0 0
0.6538 -2.3241 -0.0155 0 30 0 0
0.6538 -2.3241 -0.0155 0 30 0 0
0.6119 -2.3248 -0.0165 0 0 0 0
0.6329 -2.3257 -0.0158 30 0 0 0
0.6783 -2.3251 -0.0142 30 0 0 0
0.6783 -2.3245 -0.0143 30 0 0 0
0.6538 -2.3245 -0.0143 30 0 0 0
0.6538 -2.3244 -0.0134 30 0 0 0
0.6329 -2.3242 -0.0129 30 0 0 0
0.6329 -2.3243 -0.0121 30 0 0 0
0.6294 -2.3240 -0.0098 0 0 0 0
0.6294 -2.3239 -0.0089 30 0 0 0
0.6643 -2.3236 -0.0078 30 0 0 0
0.6573 -2.3235 -0.0067 30 0 0 0
0.6538 -2.3233 -0.0044 30 0 0 0
0.6538 -2.3233 -0.0044 30 0 0 0
0.6364 -2.3228 -0.0038 30 0 0 0
0.6364 -2.3228 -0.0038 30 0 0 0
0.6399 -2.3229 -0.0039 30 0 0 0
0.6748 -2.3233 -0.0022 30 0 0 0
0.6573 -2.3233 -0.0026 0 0 0 0
0.6853 -2.3231 -0.0043 0 -30 0 0
0.6434 -2.3233 -0.0083 0 -30 0 0
0.6329 -2.3233 -0.0107 0 -30 0 0
0.6329 -2.3234 -0.0109 0 -30 0 0
0.6329 -2.3234 -0.0109 0 -30 0 0
0.6469 -2.3232 -0.0105 0 -30 0 0
0.6224 -2.3226 -0.0103 0 -30 0 0
0.6294 -2.3225 -0.0101 0 -30 0 0
0.6294 -2.3225 -0.0101 0 -30 0 0
0.6224 -2.3226 -0.0102 0 -30 0 0
0.6189 -2.3230 -0.0081 0 -30 0 0
0.6608 -2.3239 -0.0065 0 -30 0 0
0.6608 -2.3239 -0.0065 0 -30 0 0
0.6469 -2.3236 -0.0028 0 -30 0 0
0.6364 -2.3228 -0.0028 0 -30 0 0
0.6538 -2.3225 -0.0009 0 -30 0 0
0.6678 -2.3229 -0.0011 0 -30 0 0
0.6678 -2.3231 0.0007 0 -30 0 0
0.6713 -2.3231 0.0002 0 -30 0 0
0.6713 -2.3231 0.0002 0 -30 0 0
0.6434 -2.3227 0.0014 0 -30 0 0
0.6259 -2.3224 0.0023 0 -30 0 0
0.6259 -2.3228 0.0015 0 -30 0 0
0.6538 -2.3226 0.0004 0 -30 0 0
0.6538 -2.3226 0.0004 0 -30 0 0
0.6783 -2.3226 -0.0000 0 -30 0 0
0.6503 -2.3227 -0.0008 0 0 0 0
0.6014 -2.3227 -0.0057 30 0 0 0
0.6084 -2.3226 -0.0055 30 0 0 0
0.6329 -2.3230 -0.0039 30 0 0 0
0.6538 -2.3231 -0.0045 30 0 0 0
0.6119 -2.3229 -0.0050 30 0 0 0
0.6154 -2.3226 -0.0053 30 0 0 0
0.6154 -2.3226 -0.0053 30 0 0 0
0.6608 -2.3225 -0.0050 30 0 0 0
0.6469 -2.3222 -0.0054 0 0 0 0
0.6189 -2.3223 -0.0058 0 -30 0 0
0.6364 -2.3218 -0.0065 0 -30 0 0
0.6329 -2.3225 -0.0065 0 -30 0 0
0.6364 -2.3229 -0.0066 0 -30 0 0
0.6224 -2.3231 -0.0066 0 -30 0 0
0.6538 -2.3233 -0.0077 0 -30 0 0
0.6538 -2.3233 -0.0077 0 -30 0 0
0.6189 -2.3236 -0.0079 0 -30 0 0
0.6224 -2.3238 -0.0082 0 -30 0 0
0.6434 -2.3239 -0.0082 0 -30 0 0
0.6294 -2.3240 -0.0083 0 -30 0 0
0.6294 -2.3240 -0.0083 0 -30 0 0
0.6294 -2.3242 -0.0085 0 -30 0 0
0.6224 -2.3239 -0.0084 0 -30 0 0
0.6538 -2.3238 -0.0085 0 -30 0 0
0.6538 -2.3238 -0.0085 0 -30 0 0
0.6573 -2.3238 -0.0085 0 -30 0 0
0.6469 -2.3239 -0.0087 0 -30 0 0
0.6434 -2.3237 -0.0091 0 -30 0 0
0.6573 -2.3235 -0.0092 0 0 0 0
0.6294 -2.3238 -0.0088 0 -30 0 0
0.6084 -2.3249 -0.0091 0 -30 0 0
0.6189 -2.3250 -0.0088 0 -30 0 0
0.6119 -2.3247 -0.0097 0 -30 0 0
0.6364 -2.3243 -0.0104 0 -30 0 0
0.6364 -2.3243 -0.0104 0 -30 0 0
0.6469 -2.3241 -0.0031 0 -30 0 0
0.6294 -2.3238 -0.0046 0 -30 0 0
0.6154 -2.3234 -0.0059 0 -30 0 0
0.6154 -2.3234 -0.0059 0 -30 0 0
0.5979 -2.3236 -0.0069 0 -30 0 0
0.6049 -2.3236 -0.0074 0 -30 0 0
0.6154 -2.3236 -0.0076 0 -30 0 0
0.6364 -2.3236 -0.0066 0 -30 0 0
0.6364 -2.3236 -0.0066 0 -30 0 0
0.6154 -2.3238 -0.0067 0 -30 0 0
0.6294 -2.3233 -0.0068 0 -30 0 0
0.6294 -2.3233 -0.0068 0 -30 0 0
0.6434 -2.3233 -0.0058 0 -30 0 0
0.6434 -2.3230 -0.0045 0 -30 0 0
0.6364 -2.3226 -0.0053 0 -30 0 0
0.6119 -2.3224 -0.0057 0 -30 0 0
0.6329 -2.3226 -0.0065 0 -30 0 0
0.6329 -2.3226 -0.0065 0 -30 0 0
0.6469 -2.3232 -0.0040 0 -30 0 0
0.6224 -2.3236 -0.0041 0 -30 0 0
0.6189 -2.3239 -0.0024 0 -30 0 0
0.6329 -2.3238 -0.0030 0 -30 0 0
0.6434 -2.3235 -0.0006 0 0 0 0
0.6643 -2.3230 -0.0011 0 -30 0 0
0.6154 -2.3226 0.0018 0 -30 0 0
0.6259 -2.3235 0.0090 0 -30 0 0
0.6259 -2.3232 0.0074 0 -30 0 0
0.6329 -2.3233 0.0106 0 -30 0 0
0.6434 -2.3233 0.0101 0 -30 0 0
0.6434 -2.3233 0.0101 0 -30 0 0
0.6224 -2.3229 0.0109 0 -30 0 0
0.6713 -2.3226 0.0104 0 -30 0 0
0.6469 -2.3222 0.0098 0 -30 0 0
0.6469 -2.3222 0.0098 0 -30 0 0
0.6364 -2.3217 0.0091 0 -30 0 0
0.6503 -2.3217 0.0091 0 -30 0 0
0.6503 -2.3213 0.0088 0 -30 0 0
0.6399 -2.3217 0.0083 0 -30 0 0
0.6469 -2.3222 0.0092 0 -30 0 0
0.6469 -2.3222 0.0092 0 -30 0 0
0.6259 -2.3231 0.0081 0 -30 0 0
0.6434 -2.3238 0.0076 0 -30 0 0
0.6084 -2.3242 0.0073 0 -30 0 0
0.6014 -2.3241 0.0059 0 -30 0 0
0.6014 -2.3241 0.0059 0 -30 0 0
0.6434 -2.3225 0.0038 0 -30 0 0
0.6434 -2.3225 0.0038 0 -30 0 0
0.5944 -2.3217 0.0029 0 -30 0 0
0.5944 -2.3217 0.0029 0 -30 0 0
0.5979 -2.3217 0.0016 0 -30 0 0
0.5979 -2.3217 0.0016 0 -30 0 0
0.5909 -2.3221 -0.0012 0 -30 0 0
0.6399 -2.3230 -0.0016 0 -30 0 0
0.5874 -2.3235 -0.0020 0 -30 0 0
0.6329 -2.3238 -0.0038 0 -30 0 0
0.6329 -2.3238 -0.0038 0 -30 0 0
0.6189 -2.3238 -0.0041 0 -30 0 0
0.6224 -2.3236 -0.0044 0 -30 0 0
0.6434 -2.3237 -0.0045 0 -30 0 0
0.6434 -2.3237 -0.0045 0 -30 0 0
0.6538 -2.3242 -0.0045 0 -30 0 0
0.6049 -2.3242 -0.0045 0 -30 0 0
0.6259 -2.3245 -0.0065 0 -30 0 0
0.6364 -2.3247 -0.0067 0 -30 0 0
0.6154 -2.3246 -0.0069 0 -30 0 0
0.6154 -2.3246 -0.0069 0 0 0 0
0.6084 -2.3247 -0.0141 0 -30 0 0
0.6224 -2.3226 -0.0167 0 -30 0 0
0.6364 -2.3224 -0.0158 0 -30 0 0
0.6364 -2.3224 -0.0158 0 -30 0 0
0.6329 -2.3226 -0.0166 0 -30 0 0
0.6329 -2.3226 -0.0166 0 -30 0 0
0.6119 -2.3226 -0.0170 0 -30 0 0
0.6294 -2.3231 -0.0171 0 -30 0 0
0.6294 -2.3231 -0.0171 0 -30 0 0
0.6469 -2.3232 -0.0165 0 -30 0 0
0.6573 -2.3230 -0.0161 0 -30 0 0
0.6538 -2.3226 -0.0161 0 -30 0 0
0.6154 -2.3221 -0.0157 0 -30 0 0
0.6154 -2.3221 -0.0157 0 -30 0 0
0.5909 -2.3222 -0.0150 0 -30 0 0
0.5979 -2.3223 -0.0138 0 -30 0 0
0.6189 -2.3227 -0.0117 0 0 0 0
0.6294 -2.3235 -0.0124 0 30 0 0
0.6573 -2.3234 -0.0116 0 30 0 0
0.6364 -2.3232 -0.0103 0 30 0 0
0.6259 -2.3233 -0.0108 0 30 0 0
0.6154 -2.3236 -0.0105 0 30 0 0
0.6259 -2.3241 -0.0061 0 30 0 0
0.6259 -2.3241 -0.0061 0 30 0 0
0.6434 -2.3242 -0.0075 0 30 0 0
0.6294 -2.3245 -0.0080 0 30 0 0
0.6259 -2.3248 -0.0096 0 30 0 0
0.6259 -2.3248 -0.0096 0 30 0 0
0.6399 -2.3245 -0.0078 0 30 0 0
0.6399 -2.3245 -0.0078 0 30 0 0
0.6364 -2.3245 -0.0094 0 30 0 0
0.6434 -2.3246 -0.0095 0 30 0 0
0.6364 -2.3247 -0.0109 0 30 0 0
0.5944 -2.3249 -0.0116 0 30 0 0
0.5944 -2.3249 -0.0116 0 30 0 0
0.6259 -2.3249 -0.0117 0 30 0 0
0.6573 -2.3247 -0.0122 0 30 0 0
0.6713 -2.3247 -0.0127 0 30 0 0
0.6434 -2.3250 -0.0119 0 30 0 0
0.6224 -2.3251 -0.0121 0 30 0 0
0.6224 -2.3250 -0.0119 0 30 0 0
0.6259 -2.3250 -0.0119 0 30 0 0
0.6364 -2.3250 -0.0115 0 30 0 0
0.6434 -2.3243 -0.0100 0 30 0 0
0.6364 -2.3237 -0.0109 0 30 0 0
0.6364 -2.3237 -0.0109 0 30 0 0
0.6259 -2.3234 -0.0116 0 30 0 0
0.6503 -2.3231 -0.0138 0 30 0 0
0.6049 -2.3233 -0.0167 0 30 0 0
0.6538 -2.3240 -0.0170 0 30 0 0
0.6434 -2.3243 -0.0156 0 30 0 0
0.6434 -2.3243 -0.0156 0 30 0 0
0.6399 -2.3242 -0.0161 0 30 0 0
0.6643 -2.3243 -0.0157 0 30 0 0
0.6469 -2.3240 -0.0144 0 30 0 0
0.6259 -2.3238 -0.0156 0 30 0 0
0.6259 -2.3238 -0.0156 0 30 0 0
0.6503 -2.3242 -0.0158 0 30 0 0
0.6259 -2.3242 -0.0151 0 30 0 0
0.6643 -2.3241 -0.0099 0 30 0 0
0.6643 -2.3241 -0.0099 0 30 0 0
0.6399 -2.3248 -0.0122 0 30 0 0
0.6538 -2.3251 -0.0145 0 30 0 0
0.6713 -2.3254 -0.0126 0 30 0 0
0.6713 -2.3258 -0.0147 0 30 0 0
0.6608 -2.3259 -0.0157 0 30 0 0
0.6608 -2.3259 -0.0157 0 30 0 0
0.6364 -2.3254 -0.0185 0 30 0 0
0.6224 -2.3244 -0.0209 0 30 0 0
0.6608 -2.3239 -0.0220 0 30 0 0
0.6503 -2.3234 -0.0228 0 30 0 0
0.6503 -2.3234 -0.0228 0 30 0 0
0.6538 -2.3232 -0.0218 0 30 0 0
0.6434 -2.3234 -0.0193 0 30 0 0
0.6643 -2.3234 -0.0194 0 30 0 0
0.6643 -2.3234 -0.0194 0 30 0 0
0.6713 -2.3231 -0.0156 0 30 0 0
0.6469 -2.3231 -0.0156 0 30 0 0
0.6643 -2.3229 -0.0127 0 30 0 0
0.6294 -2.3228 -0.0121 0 30 0 0
0.6678 -2.3229 -0.0096 0 30 0 0
0.6678 -2.3231 -0.0100 0 30 0 0
0.6364 -2.3231 -0.0100 0 30 0 0
0.6469 -2.3229 -0.0105 0 30 0 0
0.6643 -2.3229 -0.0101 0 30 0 0
0.6573 -2.3227 -0.0099 0 30 0 0
0.6573 -2.3227 -0.0099 0 30 0 0
0.6643 -2.3226 -0.0102 0 30 0 0
0.6434 -2.3223 -0.0095 0 30 0 0
0.6678 -2.3223 -0.0096 0 30 0 0
0.6678 -2.3223 -0.0096 0 30 0 0
0.6434 -2.3224 -0.0089 0 30 0 0
0.6503 -2.3224 -0.0089 0 30 0 0
0.6399 -2.3226 -0.0090 0 30 0 0
0.6608 -2.3232 -0.0089 0 30 0 0
0.6538 -2.3235 -0.0096 30 30 0 0
0.6084 -2.3233 -0.0084 30 30 0 0
0.6399 -2.3225 -0.0085 30 30 0 0
0.6608 -2.3222 -0.0077 30 30 0 0
0.6573 -2.3220 -0.0083 30 30 0 0
0.6573 -2.3228 -0.0091 30 30 0 0
0.6713 -2.3234 -0.0091 0 30 0 0
0.6713 -2.3234 -0.0091 0 30 0 0
0.6818 -2.3238 -0.0099 0 30 0 0
0.6399 -2.3235 -0.0096 0 30 0 0
0.6573 -2.3231 -0.0097 0 30 0 0
0.6503 -2.3226 -0.0096 0 30 0 0
0.6503 -2.3226 -0.0096 0 30 0 0
0.6538 -2.3228 -0.0115 0 30 0 0
0.6888 -2.3232 -0.0116 0 30 0 0
0.6888 -2.3238 -0.0124 0 30 0 0
0.6888 -2.3238 -0.0124 0 30 0 0
0.6818 -2.3238 -0.0128 0 30 0 0
0.6818 -2.3238 -0.0127 0 30 0 0
0.6783 -2.3238 -0.0122 0 30 0 0
0.6748 -2.3236 -0.0116 0 30 0 0
0.6748 -2.3236 -0.0102 0 30 0 0
0.6469 -2.3237 -0.0100 0 30 0 0
0.6469 -2.3237 -0.0100 0 0 0 0
0.6259 -2.3238 -0.0098 30 0 0 0
0.6224 -2.3231 -0.0108 30 0 0 0
0.6329 -2.3236 -0.0104 30 0 0 0
0.6329 -2.3236 -0.0104 0 0 0 0
0.6503 -2.3243 -0.0111 30 0 0 0
0.6818 -2.3230 -0.0148 30 0 0 0
0.6364 -2.3226 -0.0138 0 0 0 0
0.6503 -2.3233 -0.0157 0 30 0 0
0.6573 -2.3233 -0.0092 0 30 0 0
0.6748 -2.3233 -0.0092 0 30 0 0
0.6818 -2.3235 -0.0091 0 30 0 0
0.6818 -2.3235 -0.0091 0 30 0 0
0.6154 -2.3239 -0.0091 0 30 0 0
0.6713 -2.3245 -0.0078 0 30 0 0
0.6713 -2.3245 -0.0078 0 30 0 0
0.6503 -2.3241 -0.0057 0 30 0 0
0.6364 -2.3239 -0.0057 0 30 0 0
0.6364 -2.3239 -0.0057 0 30 0 0
0.6503 -2.3238 -0.0031 0 30 0 0
0.6154 -2.3238 -0.0035 0 30 0 0
0.6713 -2.3239 -0.0013 0 30 0 0
0.6608 -2.3240 -0.0049 0 0 0 0
0.6678 -2.3240 -0.0117 0 30 0 0
0.6573 -2.3239 -0.0061 0 30 0 0
0.6538 -2.3240 -0.0044 0 30 0 0
0.6503 -2.3243 -0.0042 0 0 0 0
0.6573 -2.3247 -0.0042 0 30 0 0
0.6748 -2.3238 -0.0065 0 30 0 0
0.6818 -2.3233 -0.0045 0 0 0 0
0.6573 -2.3235 -0.0063 0 30 0 0
0.6853 -2.3229 -0.0119 0 30 0 0
0.6713 -2.3229 -0.0138 0 30 0 0
0.6783 -2.3227 -0.0133 0 30 0 0
0.6783 -2.3220 -0.0140 0 0 0 0
0.6783 -2.3224 -0.0106 0 30 0 0
0.6643 -2.3222 -0.0071 0 30 0 0
0.6678 -2.3219 -0.0071 0 30 0 0
0.6888 -2.3219 -0.0073 0 30 0 0
0.6888 -2.3219 -0.0073 0 0 0 0
0.6364 -2.3227 -0.0094 0 30 0 0
0.6678 -2.3236 -0.0057 0 30 0 0
0.6608 -2.3237 -0.0027 0 30 0 0
0.6643 -2.3232 -0.0028 0 0 0 0
0.6818 -2.3246 -0.0056 0 30 0 0
0.6748 -2.3243 -0.0104 0 0 0 0
0.6608 -2.3231 -0.0170 0 30 0 0
0.6713 -2.3224 -0.0192 0 30 0 0
0.6364 -2.3228 -0.0204 0 30 0 0
0.6643 -2.3229 -0.0204 0 0 0 0
0.6608 -2.3220 -0.0245 0 30 0 0
0.6608 -2.3227 -0.0255 0 30 0 0
0.6608 -2.3227 -0.0251 0 30 0 0
0.6608 -2.3226 -0.0241 0 30 0 0
0.6608 -2.3226 -0.0232 0 0 0 0
0.6993 -2.3233 -0.0208 0 30 0 0
0.6888 -2.3238 -0.0156 0 30 0 0
0.6643 -2.3239 -0.0156 0 30 0 0
0.6853 -2.3238 -0.0149 0 30 0 0
0.6853 -2.3238 -0.0149 0 0 0 0
0.6678 -2.3233 -0.0157 0 30 0 0
0.6888 -2.3234 -0.0162 0 30 0 0
0.6888 -2.3234 -0.0162 0 30 0 0
0.6748 -2.3240 -0.0165 0 0 0 0
0.6538 -2.3240 -0.0161 0 30 0 0
0.6503 -2.3237 -0.0132 0 30 0 0
0.6713 -2.3235 -0.0116 0 30 0 0
0.6783 -2.3235 -0.0117 0 30 0 0
0.6783 -2.3235 -0.0117 0 30 0 0
0.6573 -2.3235 -0.0101 0 0 0 0
0.6678 -2.3245 -0.0069 0 30 0 0
0.6923 -2.3249 -0.0077 0 30 0 0
0.6469 -2.3249 -0.0069 0 30 0 0
0.6608 -2.3250 -0.0069 0 0 0 0
0.6573 -2.3250 -0.0070 0 30 0 0
0.6713 -2.3246 -0.0034 0 30 0 0
0.6538 -2.3243 -0.0016 0 0 0 0
0.6748 -2.3241 -0.0024 0 30 0 0
0.6573 -2.3238 -0.0011 0 30 0 0
0.6608 -2.3235 -0.0057 0 30 0 0
0.6364 -2.3233 -0.0092 0 30 0 0
0.6748 -2.3229 -0.0092 0 0 0 0
0.6678 -2.3225 -0.0073 -30 0 0 0
0.6748 -2.3231 -0.0099 -30 0 0 0
0.6608 -2.3232 -0.0094 -30 0 0 0
0.6294 -2.3232 -0.0094 -30 0 0 0
0.6748 -2.3231 -0.0048 0 0 0 0
0.6538 -2.3242 0.0019 -30 0 0 0
0.6818 -2.3240 0.0001 -30 0 0 0
0.6469 -2.3238 0.0009 -30 0 0 0
0.6469 -2.3238 0.0009 0 0 0 0
0.6713 -2.3240 -0.0014 0 30 0 0
0.6888 -2.3245 -0.0016 0 30 0 0
0.6888 -2.3246 -0.0038 0 30 0 0
0.6678 -2.3246 -0.0038 0 30 0 0
0.6538 -2.3245 -0.0042 0 0 0 0
0.7063 -2.3240 -0.0042 0 30 0 0
0.7028 -2.3241 -0.0066 0 30 0 0
0.7238 -2.3228 -0.0089 0 30 0 0
0.6923 -2.3236 -0.0090 0 30 0 0
0.6678 -2.3245 -0.0095 0 0 0 0
0.6888 -2.3249 -0.0096 0 30 0 0
0.6818 -2.3227 -0.0089 0 30 0 0
0.6678 -2.3231 -0.0087 0 30 0 0
0.7028 -2.3241 -0.0094 0 30 0 0
0.7028 -2.3241 -0.0094 0 0 0 0
0.6888 -2.3234 -0.0082 0 0 0 30
0.6888 -2.3240 -0.0061 0 0 0 0
0.6678 -2.3234 -0.0016 0 0 0 30
0.7133 -2.3242 0.0014 0 0 0 0
