0.6260 0.0008 0.0009 10 0 0 0
0.6380 0.0023 -0.0029 10 0 0 0
0.6220 0.0016 -0.0081 10 0 0 0
0.6380 0.0018 -0.0057 10 0 0 0
0.6260 0.0018 -0.0056 10 0 0 0
0.6340 0.0020 -0.0061 10 0 0 0
0.6340 0.0026 -0.0066 10 0 0 0
0.6280 0.0027 -0.0052 10 0 0 0
0.6440 0.0026 -0.0051 10 0 0 0
0.6240 0.0025 -0.0036 10 0 0 0
0.6280 0.0023 -0.0011 0 0 0 0
0.6200 0.0014 0.0007 10 0 0 0
0.6340 0.0023 0.0004 10 0 0 0
0.6200 0.0025 -0.0013 10 0 0 0
0.6100 0.0023 -0.0019 10 0 0 0
0.6040 0.0030 -0.0020 10 0 0 0
0.6260 0.0034 -0.0018 10 0 0 0
0.6240 0.0036 -0.0017 10 0 0 0
0.6280 0.0037 -0.0014 10 0 0 0
0.6280 0.0037 -0.0014 10 0 0 0
0.6240 0.0030 -0.0003 0 0 0 0
0.6160 0.0019 -0.0005 10 0 0 0
0.6260 0.0024 -0.0039 10 0 0 0
0.6300 0.0018 -0.0090 10 0 0 0
0.6300 0.0018 -0.0090 10 0 0 0
0.6320 0.0015 -0.0116 10 0 0 0
0.6240 0.0016 -0.0116 10 0 0 0
0.6280 0.0022 -0.0124 0 0 0 0
0.6500 0.0009 -0.0123 10 0 0 0
0.6460 0.0023 -0.0105 10 0 0 0
0.6280 0.0027 -0.0103 10 0 0 0
0.6280 0.0027 -0.0103 10 0 0 0
0.6420 0.0022 -0.0075 10 0 0 0
0.6320 0.0016 -0.0077 10 0 0 0
0.6320 0.0016 -0.0077 10 0 0 0
0.6280 0.0014 -0.0064 10 0 0 0
0.6160 0.0017 -0.0059 10 0 0 0
0.6240 0.0016 -0.0061 10 0 0 0
0.6240 0.0016 -0.0061 0 0 0 0
0.6140 0.0006 -0.0045 10 0 0 0
0.6240 0.0012 -0.0077 10 0 0 0
0.6180 0.0016 -0.0079 10 0 0 0
0.6400 0.0020 -0.0081 10 0 0 0
0.6160 0.0018 -0.0085 10 0 0 0
0.6320 0.0018 -0.0098 10 0 0 0
0.6320 0.0018 -0.0098 10 0 0 0
0.6200 0.0018 -0.0085 10 0 0 0
0.6200 0.0018 -0.0085 10 0 0 0
0.6240 0.0022 -0.0087 10 0 0 0
0.6220 0.0027 -0.0084 10 0 0 0
0.6280 0.0029 -0.0083 10 0 0 0
0.6300 0.0027 -0.0063 10 0 0 0
0.6300 0.0027 -0.0063 10 0 0 0
0.6220 0.0019 -0.0064 10 0 0 0
0.6220 0.0019 -0.0064 10 0 0 0
0.6400 0.0016 -0.0063 10 0 0 0
0.6260 0.0013 -0.0062 10 0 0 0
0.6420 0.0016 -0.0060 0 0 0 0
0.6360 0.0016 -0.0062 10 0 0 0
0.6300 0.0023 -0.0093 10 0 0 0
0.6400 0.0028 -0.0118 10 0 0 0
0.6420 0.0027 -0.0124 10 0 0 0
0.6260 0.0025 -0.0124 10 0 0 0
0.6360 0.0023 -0.0135 0 0 0 0
0.6480 0.0033 -0.0132 10 0 0 0
0.6620 0.0025 -0.0072 10 0 0 0
0.6660 0.0016 -0.0059 10 0 0 0
0.6660 0.0016 -0.0059 10 0 0 0
0.6740 0.0018 -0.0059 0 0 0 0
0.6700 0.0023 -0.0103 10 0 0 0
0.6880 0.0023 -0.0101 10 0 0 0
0.6760 0.0018 -0.0084 10 0 0 0
0.6580 0.0012 -0.0085 10 0 0 0
0.6580 0.0012 -0.0085 0 0 0 0
0.6880 0.0023 -0.0060 10 0 0 0
0.6840 0.0014 -0.0059 10 0 0 0
0.6620 0.0014 -0.0075 10 0 0 0
0.6640 0.0016 -0.0073 10 0 0 0
0.6700 0.0014 -0.0071 0 0 0 0
0.6600 0.0027 -0.0051 10 0 0 0
0.6860 0.0029 -0.0075 10 0 0 0
0.6780 0.0026 -0.0110 10 0 0 0
0.6920 0.0029 -0.0121 0 0 0 0
0.6780 0.0027 -0.0131 10 0 0 0
0.6660 0.0030 -0.0126 10 0 0 0
0.6900 0.0032 -0.0124 10 0 0 0
0.6900 0.0032 -0.0124 0 0 0 0
0.6880 0.0021 -0.0182 10 0 0 0
0.6800 0.0018 -0.0175 10 0 0 0
0.6800 0.0012 -0.0160 10 0 0 0
0.6780 0.0009 -0.0140 0 0 0 0
0.6720 0.0015 0.0089 0 0 0 10
0.6900 0.0019 0.0013 0 0 0 10
0.6860 0.0022 -0.0029 0 0 0 0
0.6860 0.0013 -0.0045 10 0 0 0
0.7000 0.0014 0.0047 10 0 0 0
