0.6060 0.0018 0.0313 10 0 0 0
0.6040 0.0019 0.0303 10 0 0 0
0.5860 0.0020 0.0318 10 0 0 0
0.5960 0.0020 0.0311 10 0 0 0
0.5960 0.0020 0.0311 10 0 0 0
0.6120 0.0022 0.0328 10 0 0 0
0.6120 0.0022 0.0328 10 0 0 0
0.6240 0.0020 0.0296 0 0 0 0
0.6020 0.0030 0.0321 10 0 0 0
0.6060 0.0023 0.0322 10 0 0 0
0.5980 0.0022 0.0334 10 0 0 0
0.5980 0.0025 0.0332 10 0 0 0
0.5980 0.0025 0.0332 10 0 0 0
0.5940 0.0026 0.0336 10 0 0 0
0.6060 0.0026 0.0343 10 0 0 0
0.5840 0.0023 0.0347 10 0 0 0
0.5720 0.0018 0.0333 10 0 0 0
0.5720 0.0018 0.0333 10 0 0 0
0.5800 0.0022 0.0334 10 0 0 0
0.5800 0.0022 0.0334 10 0 0 0
0.5920 0.0024 0.0361 10 0 0 0
0.5880 0.0023 0.0361 10 0 0 0
0.5900 0.0021 0.0375 10 0 0 0
0.6040 0.0020 0.0363 10 0 0 0
0.6040 0.0020 0.0363 10 0 0 0
0.5960 0.0022 0.0365 10 0 0 0
0.5860 0.0023 0.0377 10 0 0 0
0.5780 0.0024 0.0374 10 0 0 0
0.5740 0.0020 0.0404 10 0 0 0
0.6040 0.0019 0.0399 0 0 0 0
0.5860 0.0017 0.0432 10 0 0 0
0.5840 0.0015 0.0398 10 0 0 0
0.5860 0.0012 0.0412 10 0 0 0
0.6080 0.0008 0.0413 10 0 0 0
0.6040 0.0003 0.0405 0 0 0 0
0.5900 0.0001 0.0400 10 0 0 0
0.6040 0.0000 0.0396 10 0 0 0
0.6120 -0.0002 0.0376 10 0 0 0
0.5880 0.0002 0.0376 10 0 0 0
0.5940 0.0007 0.0379 10 0 0 0
0.5960 0.0010 0.0389 10 0 0 0
0.5960 0.0010 0.0389 10 0 0 0
0.6020 0.0007 0.0391 10 0 0 0
0.6120 0.0007 0.0377 10 0 0 0
0.6080 0.0009 0.0379 0 0 0 0
0.5880 0.0018 0.0383 0 0 0 -10
0.5960 0.0017 0.0388 0 0 0 -10
0.5980 0.0014 0.0389 0 0 0 -10
0.5820 0.0013 0.0381 0 0 0 0
0.5840 0.0015 0.0383 0 0 0 -10
0.5960 0.0033 0.0327 0 0 0 -10
0.6060 0.0036 0.0307 0 0 0 -10
0.6060 0.0036 0.0307 0 0 0 0
0.5940 0.0026 0.0294 0 0 0 -10
0.5980 0.0024 0.0259 0 0 0 -10
0.5880 0.0027 0.0251 0 0 0 0
0.5800 0.0028 0.0125 0 0 0 -10
0.5920 0.0036 0.0162 0 0 0 -10
0.6040 0.0030 0.0172 0 0 0 0
0.6000 0.0028 0.0128 0 0 0 -10
0.6040 0.0044 0.0123 0 0 0 -10
0.5960 0.0038 0.0093 0 0 0 0
0.5960 0.0023 -0.0048 10 0 0 0
0.5940 0.0014 -0.0062 10 0 0 0
0.5860 0.0014 -0.0049 10 0 0 0
0.5860 0.0014 -0.0049 10 0 0 0
0.5980 0.0010 -0.0051 10 0 0 0
0.5920 0.0008 -0.0049 10 0 0 0
0.5780 0.0010 -0.0054 10 0 0 0
0.5900 0.0014 -0.0039 10 0 0 0
0.5820 0.0017 -0.0047 10 0 0 0
0.5860 0.0014 -0.0046 10 0 0 0
0.5900 0.0010 -0.0042 10 0 0 0
0.5920 0.0001 -0.0052 10 0 0 0
0.5840 -0.0002 -0.0049 0 0 0 0
0.6020 0.0012 -0.0017 10 0 0 0
0.5840 0.0024 0.0006 10 0 0 0
0.6000 0.0014 0.0021 10 0 0 0
0.5900 0.0019 0.0018 10 0 0 0
0.5900 0.0024 0.0011 10 0 0 0
0.5900 0.0024 0.0011 10 0 0 0
0.5960 0.0028 0.0004 10 0 0 0
0.6060 0.0027 -0.0018 10 0 0 0
0.5920 0.0028 -0.0026 10 0 0 0
0.6040 0.0030 -0.0032 10 0 0 0
0.6000 0.0026 -0.0039 10 0 0 0
0.6000 0.0026 -0.0039 0 0 0 0
0.6140 0.0017 -0.0052 10 0 0 0
0.6080 0.0012 -0.0082 10 0 0 0
0.6040 0.0018 -0.0079 10 0 0 0
0.6200 0.0019 -0.0078 10 0 0 0
0.6200 0.0019 -0.0078 10 0 0 0
0.6140 0.0017 -0.0095 10 0 0 0
0.6020 0.0016 -0.0095 10 0 0 0
0.6420 0.0014 -0.0098 10 0 0 0
0.6220 0.0009 -0.0096 10 0 0 0
0.6220 0.0009 -0.0096 10 0 0 0
0.6200 0.0008 -0.0108 0 0 0 0
0.6000 0.0018 -0.0113 10 0 0 0
0.6080 0.0022 -0.0126 10 0 0 0
0.6120 0.0016 -0.0131 10 0 0 0
0.6120 0.0016 -0.0131 10 0 0 0
0.5860 0.0015 -0.0133 10 0 0 0
0.6060 0.0018 -0.0133 10 0 0 0
0.6100 0.0022 -0.0129 10 0 0 0
0.6100 0.0025 -0.0135 10 0 0 0
0.6180 0.0027 -0.0133 10 0 0 0
0.5960 0.0026 -0.0161 10 0 0 0
0.5980 0.0026 -0.0147 10 0 0 0
0.5980 0.0023 -0.0148 10 0 0 0
0.5860 0.0023 -0.0148 10 0 0 0
0.6000 0.0018 -0.0147 0 0 0 0
0.5800 0.0016 -0.0137 10 0 0 0
0.5820 0.0005 -0.0122 10 0 0 0
0.5780 0.0009 -0.0110 10 0 0 0
0.5820 0.0020 -0.0094 10 0 0 0
0.5820 0.0022 -0.0092 10 0 0 0
0.5940 0.0019 -0.0053 10 0 0 0
0.5940 0.0019 -0.0053 10 0 0 0
0.6220 0.0021 -0.0057 10 0 0 0
0.6040 0.0023 -0.0058 10 0 0 0
0.5940 0.0025 -0.0047 10 0 0 0
0.6160 0.0026 -0.0048 10 0 0 0
0.6160 0.0026 -0.0048 10 0 0 0
0.6040 0.0021 -0.0054 10 0 0 0
0.6040 0.0021 -0.0054 10 0 0 0
0.6180 0.0021 -0.0071 0 0 0 0
0.5920 0.0018 -0.0077 10 0 0 0
0.6020 0.0015 -0.0071 10 0 0 0
0.6000 0.0015 -0.0080 10 0 0 0
0.6040 0.0017 -0.0084 10 0 0 0
0.6040 0.0020 -0.0085 10 0 0 0
0.5980 0.0025 -0.0117 10 0 0 0
0.6120 0.0025 -0.0133 10 0 0 0
0.6120 0.0025 -0.0133 10 0 0 0
0.6120 0.0023 -0.0137 10 0 0 0
0.5980 0.0019 -0.0136 10 0 0 0
0.5900 0.0014 -0.0138 10 0 0 0
0.5980 0.0012 -0.0125 10 0 0 0
0.5980 0.0012 -0.0125 10 0 0 0
0.6080 0.0017 -0.0124 0 0 0 0
0.5960 0.0015 -0.0197 10 0 0 0
0.5860 0.0016 -0.0178 10 0 0 0
0.6140 0.0022 -0.0161 10 0 0 0
0.6020 0.0023 -0.0157 10 0 0 0
0.6280 0.0016 -0.0154 10 0 0 0
0.6280 0.0016 -0.0154 10 0 0 0
0.6040 0.0007 -0.0159 10 0 0 0
0.6080 0.0010 -0.0157 10 0 0 0
0.6080 0.0010 -0.0157 10 0 0 0
0.5960 0.0011 -0.0083 0 0 0 0
0.6280 0.0012 -0.0034 10 0 0 0
0.6100 0.0018 0.0009 10 0 0 0
0.6080 0.0020 0.0010 10 0 0 0
0.6260 0.0025 -0.0013 10 0 0 0
0.6300 0.0027 -0.0013 10 0 0 0
0.6300 0.0027 -0.0013 10 0 0 0
0.6240 0.0027 -0.0046 10 0 0 0
0.6240 0.0025 -0.0106 10 0 0 0
0.6380 0.0018 -0.0102 10 0 0 0
0.6380 0.0016 -0.0104 10 0 0 0
0.6340 0.0007 -0.0084 0 0 0 0
0.6420 0.0017 -0.0029 10 0 0 0
0.6540 0.0002 -0.0070 10 0 0 0
0.6500 0.0016 -0.0083 10 0 0 0
0.6300 0.0020 -0.0094 10 0 0 0
0.6520 0.0022 -0.0088 10 0 0 0
0.6700 0.0027 -0.0126 10 0 0 0
0.6700 0.0029 -0.0131 10 0 0 0
0.6480 0.0029 -0.0131 10 0 0 0
0.6480 0.0026 -0.0139 0 0 0 0
0.6500 0.0026 -0.0166 10 0 0 0
0.6320 0.0017 -0.0180 10 0 0 0
0.6300 0.0020 -0.0173 10 0 0 0
0.6500 0.0018 -0.0174 10 0 0 0
0.6580 0.0018 -0.0172 10 0 0 0
0.6580 0.0018 -0.0172 10 0 0 0
0.6520 0.0019 -0.0168 10 0 0 0
0.6420 0.0020 -0.0162 0 0 0 0
0.6520 0.0032 -0.0169 10 0 0 0
0.6660 0.0038 -0.0155 10 0 0 0
0.6700 0.0043 -0.0185 10 0 0 0
0.6520 0.0045 -0.0176 10 0 0 0
0.6640 0.0042 -0.0140 10 0 0 0
0.6640 0.0042 -0.0138 10 0 0 0
0.6520 0.0042 -0.0158 10 0 0 0
0.6520 0.0042 -0.0158 10 0 0 0
0.6520 0.0050 -0.0160 0 0 0 0
0.7000 0.0036 -0.0227 0 0 0 -10
0.6840 0.0025 -0.0264 0 0 0 -10
0.6740 0.0014 -0.0279 0 0 0 0
0.6720 -0.0000 -0.0282 0 0 0 -10
0.6980 0.0010 -0.0318 0 0 0 -10
0.6900 0.0012 -0.0334 0 0 0 0
0.6860 0.0010 -0.0472 0 0 0 10
0.6940 -0.0015 -0.0466 0 0 0 10
0.6840 0.0005 -0.0439 0 0 0 0
0.6860 0.0017 -0.0401 0 0 0 10
0.6700 0.0001 -0.0361 0 0 0 0
0.6940 0.0016 -0.0247 0 0 0 10
0.6940 0.0002 -0.0206 0 0 0 10
0.6980 0.0026 -0.0177 0 0 0 0
