0.6320 -0.0003 -0.0105 10 0 0 0
0.6140 0.0007 -0.0115 10 0 0 0
0.5980 0.0005 -0.0162 10 0 0 0
0.6000 0.0002 -0.0161 10 0 0 0
0.6000 0.0002 -0.0161 10 0 0 0
0.5900 0.0002 -0.0156 10 0 0 0
0.6160 0.0009 -0.0152 10 0 0 0
0.6040 0.0012 -0.0155 10 0 0 0
0.6080 0.0013 -0.0135 10 0 0 0
0.6020 0.0012 -0.0135 10 0 0 0
0.6020 0.0012 -0.0135 10 0 0 0
0.6100 0.0007 -0.0141 10 0 0 0
0.6160 0.0000 -0.0139 10 0 0 0
0.6040 0.0002 -0.0119 10 0 0 0
0.6040 0.0002 -0.0119 10 0 0 0
0.5960 0.0007 -0.0126 10 0 0 0
0.5980 0.0015 -0.0137 10 0 0 0
0.5980 0.0015 -0.0137 10 0 0 0
0.6240 0.0017 -0.0138 10 0 0 0
0.6080 0.0019 -0.0144 10 0 0 0
0.6080 0.0019 -0.0144 10 0 0 0
0.6040 0.0014 -0.0152 10 0 0 0
0.6140 0.0007 -0.0148 10 0 0 0
0.6260 -0.0000 -0.0148 10 0 0 0
0.6120 0.0001 -0.0149 10 0 0 0
0.6160 0.0004 -0.0148 10 0 0 0
0.6100 0.0003 -0.0118 10 0 0 0
0.6100 0.0003 -0.0118 10 0 0 0
0.6080 0.0004 -0.0119 10 0 0 0
0.6240 -0.0001 -0.0108 10 0 0 0
0.6220 -0.0002 -0.0111 10 0 0 0
0.6000 0.0005 -0.0111 10 0 0 0
0.6000 0.0005 -0.0111 10 0 0 0
0.6200 0.0010 -0.0114 10 0 0 0
0.6140 0.0008 -0.0114 10 0 0 0
0.6140 0.0006 -0.0131 10 0 0 0
0.6220 0.0011 -0.0134 10 0 0 0
0.6220 0.0011 -0.0134 10 0 0 0
0.6200 0.0015 -0.0140 10 0 0 0
0.6200 0.0015 -0.0140 10 0 0 0
0.6140 0.0014 -0.0146 10 0 0 0
0.6180 0.0018 -0.0148 10 0 0 0
0.6160 0.0019 -0.0146 10 0 0 0
0.6160 0.0019 -0.0146 10 0 0 0
0.6300 0.0018 -0.0147 10 0 0 0
0.6140 0.0014 -0.0166 10 0 0 0
0.6260 0.0011 -0.0171 10 0 0 0
0.6100 0.0011 -0.0170 10 0 0 0
0.6100 0.0011 -0.0170 10 0 0 0
0.6240 0.0019 -0.0180 10 0 0 0
0.6240 0.0019 -0.0180 10 0 0 0
0.6180 0.0022 -0.0177 10 0 0 0
0.6280 0.0012 -0.0195 10 0 0 0
0.6340 0.0005 -0.0199 10 0 0 0
0.6360 0.0001 -0.0193 10 0 0 0
0.6320 0.0004 -0.0197 10 0 0 0
0.6360 0.0014 -0.0211 10 0 0 0
0.6360 0.0014 -0.0211 10 0 0 0
0.6120 0.0021 -0.0217 10 0 0 0
0.6200 0.0026 -0.0259 10 0 0 0
0.6200 0.0023 -0.0271 10 0 0 0
0.6040 0.0018 -0.0267 10 0 0 0
0.6140 0.0017 -0.0262 10 0 0 0
0.6140 0.0014 -0.0228 0 0 0 0
0.6120 0.0013 -0.0157 10 0 0 0
0.6280 0.0020 -0.0124 10 0 0 0
0.6360 0.0018 -0.0140 10 0 0 0
0.6340 0.0018 -0.0143 10 0 0 0
0.6340 0.0022 -0.0134 10 0 0 0
0.6340 0.0022 -0.0134 10 0 0 0
0.6340 0.0026 -0.0130 10 0 0 0
0.6320 0.0024 -0.0122 10 0 0 0
0.6400 0.0023 -0.0122 10 0 0 0
0.6540 0.0023 -0.0094 0 0 0 0
0.6140 0.0022 -0.0132 10 0 0 0
0.6360 0.0038 -0.0153 10 0 0 0
0.6400 0.0041 -0.0208 10 0 0 0
0.6280 0.0036 -0.0211 0 0 0 0
0.6460 0.0038 -0.0242 10 0 0 0
0.6340 0.0040 -0.0262 10 0 0 0
0.6340 0.0040 -0.0262 10 0 0 0
0.6360 0.0039 -0.0242 10 0 0 0
0.6400 0.0039 -0.0242 0 0 0 0
0.6340 0.0043 -0.0221 10 0 0 0
0.6420 0.0038 -0.0225 10 0 0 0
0.6520 0.0038 -0.0229 10 0 0 0
0.6520 0.0040 -0.0234 10 0 0 0
0.6480 0.0036 -0.0232 10 0 0 0
0.6480 0.0036 -0.0232 10 0 0 0
0.6360 0.0031 -0.0249 10 0 0 0
0.6380 0.0026 -0.0253 10 0 0 0
0.6580 0.0029 -0.0251 10 0 0 0
0.6580 0.0029 -0.0251 10 0 0 0
0.6560 0.0033 -0.0259 10 0 0 0
0.6660 0.0034 -0.0256 10 0 0 0
0.6580 0.0029 -0.0249 10 0 0 0
0.6600 0.0024 -0.0242 10 0 0 0
0.6560 0.0022 -0.0244 10 0 0 0
0.6560 0.0022 -0.0244 10 0 0 0
0.6560 0.0023 -0.0243 0 0 0 0
0.6620 0.0039 -0.0246 10 0 0 0
0.6420 0.0039 -0.0247 10 0 0 0
0.6700 0.0030 -0.0232 10 0 0 0
0.6820 0.0030 -0.0235 0 0 0 0
0.6760 0.0038 -0.0216 10 0 0 0
0.6760 0.0039 -0.0193 10 0 0 0
0.6820 0.0037 -0.0189 10 0 0 0
0.6820 0.0037 -0.0189 10 0 0 0
0.6960 0.0028 -0.0190 10 0 0 0
0.6820 0.0023 -0.0179 10 0 0 0
0.7060 0.0023 -0.0179 10 0 0 0
0.7000 0.0023 -0.0178 10 0 0 0
0.6820 0.0020 -0.0196 10 0 0 0
0.6860 0.0019 -0.0198 10 0 0 0
0.6860 0.0019 -0.0198 10 0 0 0
0.7040 0.0023 -0.0218 10 0 0 0
0.7020 0.0026 -0.0217 10 0 0 0
0.6980 0.0023 -0.0229 10 0 0 0
0.6920 0.0018 -0.0255 10 0 0 0
0.7040 0.0022 -0.0251 0 0 0 0
0.6660 0.0016 -0.0109 0 0 0 10
0.6640 0.0019 -0.0076 0 0 0 10
0.6560 0.0006 -0.0052 0 0 0 10
0.6620 0.0005 -0.0053 0 0 0 0
0.6740 0.0019 -0.0007 0 0 0 10
0.6540 0.0022 0.0095 0 0 0 10
0.6660 0.0019 0.0116 0 0 0 0
0.6740 0.0021 -0.0130 10 0 0 0
0.6840 0.0016 -0.0119 10 0 0 0
