0.5840 0.0010 -0.0253 10 0 0 0
0.5860 0.0030 -0.0258 10 0 0 0
0.5900 0.0027 -0.0294 10 0 0 0
0.5780 0.0022 -0.0310 10 0 0 0
0.5900 0.0021 -0.0310 10 0 0 0
0.5900 0.0021 -0.0310 10 0 0 0
0.5840 0.0029 -0.0345 10 0 0 0
0.5820 0.0028 -0.0340 0 0 0 0
0.5900 0.0016 -0.0400 10 0 0 0
0.5740 0.0013 -0.0358 10 0 0 0
0.5740 0.0013 -0.0358 10 0 0 0
0.5780 0.0023 -0.0348 10 0 0 0
0.5800 0.0020 -0.0329 10 0 0 0
0.5800 0.0020 -0.0329 10 0 0 0
0.5840 0.0016 -0.0292 10 0 0 0
0.6080 0.0017 -0.0275 10 0 0 0
0.6000 0.0020 -0.0269 10 0 0 0
0.6000 0.0020 -0.0269 10 0 0 0
0.6080 0.0025 -0.0236 10 0 0 0
0.5820 0.0025 -0.0236 10 0 0 0
0.5900 0.0018 -0.0225 0 0 0 0
0.5940 0.0002 -0.0177 10 0 0 0
0.5760 0.0004 -0.0140 10 0 0 0
0.5920 0.0002 -0.0119 10 0 0 0
0.5920 0.0002 -0.0119 10 0 0 0
0.5820 -0.0001 -0.0118 10 0 0 0
0.5880 -0.0004 -0.0122 10 0 0 0
0.5780 -0.0000 -0.0123 10 0 0 0
0.5780 -0.0000 -0.0123 10 0 0 0
0.5740 0.0009 -0.0124 10 0 0 0
0.5800 0.0009 -0.0123 10 0 0 0
0.5800 0.0009 -0.0123 10 0 0 0
0.6000 0.0007 -0.0127 10 0 0 0
0.5740 0.0003 -0.0114 10 0 0 0
0.5900 0.0007 -0.0115 10 0 0 0
0.5900 0.0007 -0.0115 10 0 0 0
0.5660 0.0009 -0.0119 10 0 0 0
0.5660 0.0011 -0.0124 10 0 0 0
0.5720 0.0011 -0.0120 10 0 0 0
0.5720 0.0009 -0.0138 10 0 0 0
0.5680 0.0011 -0.0141 10 0 0 0
0.5760 0.0008 -0.0161 10 0 0 0
0.5760 0.0008 -0.0161 10 0 0 0
0.5860 0.0008 -0.0168 10 0 0 0
0.5780 0.0010 -0.0130 10 0 0 0
0.5620 0.0013 -0.0132 10 0 0 0
0.5620 0.0013 -0.0132 10 0 0 0
0.5600 0.0020 -0.0108 10 0 0 0
0.5600 0.0020 -0.0108 10 0 0 0
0.5660 0.0018 -0.0126 10 0 0 0
0.5860 0.0015 -0.0131 10 0 0 0
0.5760 0.0011 -0.0127 0 0 0 0
0.5760 0.0010 -0.0100 10 0 0 0
0.5760 0.0015 -0.0099 10 0 0 0
0.5720 0.0004 -0.0087 10 0 0 0
0.5680 0.0005 -0.0088 10 0 0 0
0.5960 0.0011 -0.0039 10 0 0 0
0.5960 0.0016 -0.0044 10 0 0 0
0.5680 0.0021 -0.0065 10 0 0 0
0.5680 0.0021 -0.0065 10 0 0 0
0.5940 0.0022 -0.0095 10 0 0 0
0.5960 0.0023 -0.0101 10 0 0 0
0.6020 0.0024 -0.0125 10 0 0 0
0.6060 0.0027 -0.0130 10 0 0 0
0.6060 0.0027 -0.0130 10 0 0 0
0.5980 0.0017 -0.0170 10 0 0 0
0.5980 0.0017 -0.0170 10 0 0 0
0.6100 0.0016 -0.0172 0 0 0 0
0.5940 0.0016 -0.0206 10 0 0 0
0.5820 0.0005 -0.0213 10 0 0 0
0.5760 0.0009 -0.0223 10 0 0 0
0.5940 0.0013 -0.0234 10 0 0 0
0.6000 0.0021 -0.0234 10 0 0 0
0.6080 0.0026 -0.0267 10 0 0 0
0.5920 0.0027 -0.0264 10 0 0 0
0.5920 0.0027 -0.0264 10 0 0 0
0.5720 0.0026 -0.0243 10 0 0 0
0.5720 0.0026 -0.0243 10 0 0 0
0.5860 0.0024 -0.0244 10 0 0 0
0.5960 0.0025 -0.0243 10 0 0 0
0.5960 0.0025 -0.0243 10 0 0 0
0.6080 0.0022 -0.0236 10 0 0 0
0.6080 0.0022 -0.0236 10 0 0 0
0.6000 0.0022 -0.0245 10 0 0 0
0.5960 0.0015 -0.0247 10 0 0 0
0.6040 0.0005 -0.0248 10 0 0 0
0.6040 0.0005 -0.0248 10 0 0 0
0.6020 0.0003 -0.0268 10 0 0 0
0.5880 0.0004 -0.0267 10 0 0 0
0.6040 0.0009 -0.0248 10 0 0 0
0.5960 0.0007 -0.0245 10 0 0 0
0.5860 0.0005 -0.0243 10 0 0 0
0.5860 0.0005 -0.0243 10 0 0 0
0.6000 0.0007 -0.0240 10 0 0 0
0.5960 0.0005 -0.0226 0 0 0 0
0.5920 0.0013 -0.0172 10 0 0 0
0.6080 0.0012 -0.0206 10 0 0 0
0.5840 0.0021 -0.0232 10 0 0 0
0.5840 0.0021 -0.0232 10 0 0 0
0.5780 0.0027 -0.0220 10 0 0 0
0.5860 0.0032 -0.0217 0 0 0 0
0.5920 0.0040 -0.0221 10 0 0 0
0.6000 0.0027 -0.0223 10 0 0 0
0.5820 0.0020 -0.0240 10 0 0 0
0.6000 0.0021 -0.0237 10 0 0 0
0.5940 0.0023 -0.0236 10 0 0 0
0.6020 0.0030 -0.0232 0 0 0 0
0.6040 0.0021 -0.0197 10 0 0 0
0.6120 0.0011 -0.0177 10 0 0 0
0.6020 0.0015 -0.0176 10 0 0 0
0.6140 0.0020 -0.0179 10 0 0 0
0.5960 0.0020 -0.0187 10 0 0 0
0.6180 0.0023 -0.0190 10 0 0 0
0.6080 0.0023 -0.0182 0 0 0 0
0.6080 0.0010 -0.0241 0 0 0 10
0.6020 0.0027 -0.0230 0 0 0 10
0.6040 0.0029 -0.0248 0 0 0 0
0.6040 0.0032 -0.0238 0 0 0 10
0.6260 0.0019 -0.0244 0 0 0 10
0.5980 0.0023 -0.0249 0 0 0 10
0.6100 0.0025 -0.0256 0 0 0 0
0.6200 0.0007 -0.0153 0 0 0 10
0.6200 0.0017 -0.0139 0 0 0 10
0.6220 0.0011 -0.0091 0 0 0 0
0.6260 0.0016 -0.0034 0 0 0 10
0.6220 0.0011 -0.0024 0 0 0 10
0.6100 0.0010 -0.0025 0 0 0 0
0.6320 0.0027 0.0101 10 0 0 0
0.6180 0.0019 0.0089 10 0 0 0
0.6240 0.0017 0.0107 10 0 0 0
0.6240 0.0017 0.0107 10 0 0 0
0.6180 0.0023 0.0132 10 0 0 0
0.6280 0.0025 0.0131 10 0 0 0
0.6000 0.0022 0.0139 10 0 0 0
0.6060 0.0019 0.0135 10 0 0 0
0.6060 0.0019 0.0135 10 0 0 0
0.6140 0.0017 0.0131 10 0 0 0
0.6320 0.0015 0.0105 10 0 0 0
0.6140 0.0013 0.0102 10 0 0 0
0.6300 0.0016 0.0109 10 0 0 0
0.6300 0.0016 0.0109 10 0 0 0
0.6200 0.0011 0.0101 10 0 0 0
0.6200 0.0011 0.0101 10 0 0 0
0.6080 0.0008 0.0100 10 0 0 0
0.6300 0.0007 0.0122 0 0 0 0
0.6300 0.0004 0.0103 10 0 0 0
0.6120 0.0013 0.0091 10 0 0 0
0.6240 0.0019 0.0079 10 0 0 0
0.6040 0.0019 0.0079 10 0 0 0
0.6000 0.0016 0.0066 10 0 0 0
0.5900 0.0011 0.0065 10 0 0 0
0.6020 0.0014 0.0048 10 0 0 0
0.5920 0.0017 0.0050 10 0 0 0
0.5920 0.0017 0.0050 10 0 0 0
0.6040 0.0019 0.0044 10 0 0 0
0.6120 0.0020 0.0039 10 0 0 0
0.6100 0.0023 0.0025 10 0 0 0
0.6100 0.0021 0.0019 10 0 0 0
0.6000 0.0018 0.0023 10 0 0 0
0.6140 0.0020 0.0022 10 0 0 0
0.6140 0.0020 0.0022 10 0 0 0
0.6100 0.0019 -0.0005 10 0 0 0
0.6020 0.0016 -0.0004 10 0 0 0
0.6020 0.0016 -0.0004 10 0 0 0
0.5980 0.0014 -0.0017 10 0 0 0
0.6000 0.0016 -0.0017 10 0 0 0
0.6000 0.0014 -0.0020 10 0 0 0
0.6000 0.0014 -0.0020 10 0 0 0
0.5920 0.0016 -0.0018 10 0 0 0
0.6120 0.0016 -0.0024 10 0 0 0
0.6060 0.0014 -0.0022 10 0 0 0
0.6160 0.0014 -0.0032 10 0 0 0
0.6020 0.0011 -0.0028 10 0 0 0
0.5960 0.0013 -0.0055 0 0 0 0
0.5760 0.0007 0.0009 10 0 0 0
0.5940 0.0033 0.0023 10 0 0 0
0.6080 0.0038 0.0035 10 0 0 0
0.6020 0.0032 0.0036 10 0 0 0
0.6120 0.0030 0.0037 10 0 0 0
0.6120 0.0030 0.0037 10 0 0 0
0.6180 0.0029 0.0044 10 0 0 0
0.6040 0.0028 0.0042 10 0 0 0
0.5960 0.0026 0.0040 10 0 0 0
0.5960 0.0026 0.0040 10 0 0 0
0.5980 0.0030 0.0045 10 0 0 0
0.5980 0.0030 0.0045 10 0 0 0
0.6020 0.0036 0.0020 10 0 0 0
0.6020 0.0039 0.0036 0 0 0 0
0.6000 0.0027 0.0058 10 0 0 0
0.5940 0.0022 0.0059 10 0 0 0
0.5980 0.0025 0.0060 10 0 0 0
0.6160 0.0027 0.0065 10 0 0 0
0.6060 0.0031 0.0067 10 0 0 0
0.6060 0.0031 0.0067 10 0 0 0
0.6020 0.0032 0.0076 10 0 0 0
0.6020 0.0032 0.0076 10 0 0 0
0.5960 0.0027 0.0068 10 0 0 0
0.6080 0.0022 0.0081 0 0 0 0
0.5880 0.0034 0.0096 10 0 0 0
0.6140 0.0024 0.0104 10 0 0 0
0.6040 0.0036 0.0117 10 0 0 0
0.5980 0.0031 0.0113 10 0 0 0
0.5980 0.0031 0.0113 10 0 0 0
0.6060 0.0027 0.0116 10 0 0 0
0.6120 0.0025 0.0118 10 0 0 0
0.6080 0.0023 0.0111 10 0 0 0
0.6100 0.0023 0.0114 10 0 0 0
0.6100 0.0023 0.0114 10 0 0 0
0.6000 0.0029 0.0108 10 0 0 0
0.5880 0.0029 0.0100 0 0 0 0
0.6260 0.0032 0.0094 10 0 0 0
0.6100 0.0021 0.0054 10 0 0 0
0.6040 0.0020 0.0043 10 0 0 0
0.6080 0.0018 0.0033 10 0 0 0
0.6140 0.0012 0.0033 10 0 0 0
0.6120 0.0012 0.0048 0 0 0 0
0.6120 0.0016 0.0063 10 0 0 0
0.6060 0.0021 0.0068 10 0 0 0
0.6320 0.0026 0.0066 10 0 0 0
0.5960 0.0027 0.0055 10 0 0 0
0.5920 0.0025 0.0056 10 0 0 0
0.5920 0.0025 0.0056 10 0 0 0
0.6000 0.0018 0.0046 0 0 0 0
0.6020 0.0016 0.0038 10 0 0 0
0.5860 0.0016 0.0040 10 0 0 0
0.5860 0.0016 0.0040 10 0 0 0
0.5980 0.0011 0.0040 10 0 0 0
0.5980 0.0011 0.0040 10 0 0 0
0.5860 0.0011 0.0036 10 0 0 0
0.5960 0.0018 0.0031 10 0 0 0
0.6100 0.0023 0.0031 10 0 0 0
0.6180 0.0031 0.0042 10 0 0 0
0.6180 0.0031 0.0042 10 0 0 0
0.6280 0.0030 0.0053 0 0 0 0
0.6200 0.0031 0.0043 10 0 0 0
0.6240 0.0025 0.0049 10 0 0 0
0.6240 0.0025 0.0049 10 0 0 0
0.6080 0.0021 0.0052 10 0 0 0
0.6200 0.0022 0.0051 0 0 0 0
0.6200 0.0023 0.0038 10 0 0 0
0.6220 0.0024 0.0042 10 0 0 0
0.6000 0.0025 0.0020 10 0 0 0
0.6160 0.0026 0.0022 10 0 0 0
0.6160 0.0026 0.0022 10 0 0 0
0.6080 0.0032 0.0023 0 0 0 0
0.6060 0.0032 0.0031 10 0 0 0
0.6080 0.0030 0.0046 10 0 0 0
0.6160 0.0027 0.0048 10 0 0 0
0.6260 0.0024 0.0043 10 0 0 0
0.6300 0.0023 0.0044 10 0 0 0
0.6140 0.0021 0.0053 10 0 0 0
0.6140 0.0021 0.0053 10 0 0 0
0.6040 0.0018 0.0057 10 0 0 0
0.6100 0.0016 0.0066 10 0 0 0
0.6260 0.0013 0.0066 10 0 0 0
0.6320 0.0011 0.0082 10 0 0 0
0.6300 0.0012 0.0070 10 0 0 0
0.6460 0.0014 0.0075 10 0 0 0
0.6460 0.0014 0.0075 10 0 0 0
0.6320 0.0017 0.0081 10 0 0 0
0.6320 0.0017 0.0081 0 0 0 0
0.6440 0.0006 0.0004 10 0 0 0
0.6500 0.0011 0.0006 10 0 0 0
0.6460 0.0013 0.0019 10 0 0 0
0.6340 0.0011 0.0018 10 0 0 0
0.6460 0.0016 0.0017 10 0 0 0
0.6360 0.0019 0.0019 0 0 0 0
0.6600 0.0012 0.0011 10 0 0 0
0.6660 0.0008 -0.0004 10 0 0 0
0.6340 0.0022 0.0033 10 0 0 0
0.6400 0.0023 0.0046 10 0 0 0
0.6700 0.0023 0.0056 10 0 0 0
0.6660 0.0024 0.0052 0 0 0 0
0.6660 0.0023 0.0041 10 0 0 0
0.6560 0.0022 0.0034 10 0 0 0
0.6440 0.0020 0.0033 10 0 0 0
0.6440 0.0020 0.0033 10 0 0 0
0.6540 0.0018 0.0027 10 0 0 0
0.6500 0.0023 0.0023 0 0 0 0
0.6540 0.0022 0.0022 10 0 0 0
0.6500 0.0027 0.0042 10 0 0 0
0.6480 0.0025 0.0043 10 0 0 0
0.6680 0.0022 0.0047 10 0 0 0
0.6540 0.0023 0.0046 10 0 0 0
0.6540 0.0023 0.0046 10 0 0 0
0.6540 0.0027 0.0033 0 0 0 0
0.6380 0.0026 0.0029 10 0 0 0
0.6420 0.0010 0.0019 10 0 0 0
0.6600 0.0009 0.0009 10 0 0 0
0.6720 0.0011 0.0012 10 0 0 0
0.6740 0.0015 0.0016 10 0 0 0
0.6720 0.0016 0.0021 0 0 0 0
0.6600 0.0018 0.0030 10 0 0 0
0.6560 0.0016 0.0013 10 0 0 0
0.6680 0.0023 0.0012 10 0 0 0
0.6640 0.0026 0.0010 10 0 0 0
0.6440 0.0023 0.0012 10 0 0 0
0.6440 0.0018 0.0014 0 0 0 0
0.6620 0.0020 0.0015 10 0 0 0
0.6800 0.0017 0.0020 10 0 0 0
0.6960 0.0017 0.0022 10 0 0 0
0.6960 0.0017 0.0022 10 0 0 0
0.6700 0.0016 0.0019 10 0 0 0
0.6880 0.0016 0.0030 0 0 0 0
0.6860 0.0011 0.0030 10 0 0 0
0.6840 0.0020 0.0040 10 0 0 0
0.6840 0.0022 0.0039 10 0 0 0
0.6680 0.0021 0.0058 10 0 0 0
0.6640 0.0020 0.0059 10 0 0 0
0.6640 0.0020 0.0059 10 0 0 0
0.6840 0.0021 0.0067 10 0 0 0
0.6800 0.0028 0.0066 0 0 0 0
0.6820 0.0016 0.0049 10 0 0 0
0.6900 0.0017 0.0028 10 0 0 0
0.6980 0.0015 0.0034 10 0 0 0
0.6940 0.0009 0.0042 10 0 0 0
