0.6180 0.0009 0.0116 10 0 0 0
0.6060 0.0003 0.0120 10 0 0 0
0.6000 0.0007 0.0105 10 0 0 0
0.5940 0.0011 0.0118 10 0 0 0
0.5940 0.0016 0.0119 10 0 0 0
0.5900 0.0019 0.0114 10 0 0 0
0.5900 0.0019 0.0114 10 0 0 0
0.6100 0.0021 0.0123 10 0 0 0
0.6100 0.0021 0.0123 10 0 0 0
0.6040 0.0016 0.0123 10 0 0 0
0.6140 0.0012 0.0115 10 0 0 0
0.6000 0.0010 0.0114 10 0 0 0
0.5920 0.0012 0.0106 10 0 0 0
0.5920 0.0012 0.0106 10 0 0 0
0.5840 0.0019 0.0094 10 0 0 0
0.5840 0.0019 0.0094 10 0 0 0
0.5920 0.0027 0.0094 10 0 0 0
0.5620 0.0028 0.0096 10 0 0 0
0.6020 0.0031 0.0077 10 0 0 0
0.5980 0.0031 0.0082 10 0 0 0
0.5900 0.0030 0.0074 10 0 0 0
0.5900 0.0030 0.0074 10 0 0 0
0.5920 0.0025 0.0062 10 0 0 0
0.5940 0.0012 0.0085 10 0 0 0
0.6000 0.0014 0.0089 10 0 0 0
0.6000 0.0014 0.0089 10 0 0 0
0.6060 0.0016 0.0104 10 0 0 0
0.6000 0.0016 0.0091 10 0 0 0
0.6000 0.0016 0.0091 10 0 0 0
0.6240 0.0013 0.0048 10 0 0 0
0.6240 0.0013 0.0048 10 0 0 0
0.5920 0.0014 0.0040 10 0 0 0
0.6140 0.0020 0.0047 10 0 0 0
0.6040 0.0016 0.0050 10 0 0 0
0.6060 0.0016 0.0053 0 0 0 0
0.6040 0.0019 0.0010 10 0 0 0
0.6080 0.0022 0.0053 10 0 0 0
0.6120 0.0017 0.0078 10 0 0 0
0.6160 0.0014 0.0084 10 0 0 0
0.5860 0.0022 0.0098 10 0 0 0
0.5860 0.0022 0.0098 10 0 0 0
0.5980 0.0027 0.0101 10 0 0 0
0.6200 0.0032 0.0085 10 0 0 0
0.6180 0.0032 0.0089 10 0 0 0
0.6040 0.0027 0.0080 10 0 0 0
0.6060 0.0021 0.0080 10 0 0 0
0.5880 0.0017 0.0083 10 0 0 0
0.5880 0.0017 0.0083 10 0 0 0
0.5840 0.0017 0.0085 10 0 0 0
0.6080 0.0021 0.0103 10 0 0 0
0.5960 0.0023 0.0111 10 0 0 0
0.6080 0.0023 0.0116 10 0 0 0
0.6080 0.0022 0.0119 10 0 0 0
0.6220 0.0017 0.0119 0 0 0 0
0.6280 0.0032 0.0120 10 0 0 0
0.6220 0.0024 0.0130 10 0 0 0
0.6180 0.0027 0.0159 10 0 0 0
0.6240 0.0029 0.0152 10 0 0 0
0.6200 0.0025 0.0156 10 0 0 0
0.6100 0.0022 0.0159 10 0 0 0
0.6120 0.0023 0.0146 10 0 0 0
0.6100 0.0022 0.0144 10 0 0 0
0.6080 0.0020 0.0143 0 0 0 0
0.6040 0.0020 0.0171 10 0 0 0
0.5980 0.0014 0.0198 10 0 0 0
0.6020 0.0014 0.0198 10 0 0 0
0.6020 0.0014 0.0198 10 0 0 0
0.6000 0.0014 0.0201 10 0 0 0
0.5980 0.0016 0.0197 10 0 0 0
0.5920 0.0016 0.0181 10 0 0 0
0.5920 0.0016 0.0181 10 0 0 0
0.6040 0.0016 0.0195 10 0 0 0
0.6040 0.0016 0.0195 10 0 0 0
0.6020 0.0014 0.0200 0 0 0 0
0.6140 0.0018 0.0229 10 0 0 0
0.6320 0.0021 0.0210 10 0 0 0
0.6260 0.0021 0.0200 10 0 0 0
0.6260 0.0023 0.0185 10 0 0 0
0.6140 0.0018 0.0185 10 0 0 0
0.6220 0.0013 0.0184 10 0 0 0
0.6220 0.0013 0.0184 10 0 0 0
0.6380 0.0011 0.0187 0 0 0 0
0.6300 0.0012 0.0189 10 0 0 0
0.6080 0.0028 0.0185 10 0 0 0
0.6160 0.0027 0.0195 10 0 0 0
0.6300 0.0023 0.0199 0 0 0 0
0.6540 0.0030 0.0209 10 0 0 0
0.6300 0.0033 0.0181 10 0 0 0
0.6260 0.0024 0.0158 10 0 0 0
0.6260 0.0024 0.0158 10 0 0 0
0.6380 0.0026 0.0141 10 0 0 0
0.6400 0.0029 0.0145 0 0 0 0
0.6440 0.0032 0.0148 10 0 0 0
0.6240 0.0026 0.0179 10 0 0 0
0.6240 0.0026 0.0179 10 0 0 0
0.6240 0.0026 0.0179 10 0 0 0
0.6200 0.0022 0.0212 0 0 0 0
0.6260 0.0014 0.0231 10 0 0 0
0.6460 0.0030 0.0249 10 0 0 0
0.6220 0.0027 0.0246 10 0 0 0
0.6260 0.0023 0.0245 10 0 0 0
0.6180 0.0023 0.0246 10 0 0 0
0.6180 0.0023 0.0246 10 0 0 0
0.6180 0.0023 0.0235 10 0 0 0
0.6000 0.0026 0.0229 10 0 0 0
0.6000 0.0026 0.0229 10 0 0 0
0.6200 0.0028 0.0221 10 0 0 0
0.6200 0.0028 0.0221 10 0 0 0
0.6300 0.0024 0.0221 0 0 0 0
0.6320 0.0025 0.0235 10 0 0 0
0.6300 0.0012 0.0228 10 0 0 0
0.6500 0.0010 0.0244 10 0 0 0
0.6500 0.0014 0.0252 10 0 0 0
0.6160 0.0014 0.0254 10 0 0 0
0.6160 0.0014 0.0254 10 0 0 0
0.6120 0.0014 0.0288 10 0 0 0
0.6380 0.0016 0.0285 10 0 0 0
0.6280 0.0018 0.0303 10 0 0 0
0.6340 0.0021 0.0301 10 0 0 0
0.6340 0.0021 0.0301 10 0 0 0
0.6260 0.0017 0.0279 10 0 0 0
0.6260 0.0017 0.0279 10 0 0 0
0.6380 0.0016 0.0251 10 0 0 0
0.6300 0.0016 0.0244 10 0 0 0
0.6200 0.0018 0.0263 10 0 0 0
0.6120 0.0021 0.0260 10 0 0 0
0.6120 0.0021 0.0260 10 0 0 0
0.6240 0.0019 0.0249 10 0 0 0
0.6060 0.0022 0.0248 0 0 0 0
0.6400 0.0011 0.0191 0 0 0 0
0.6360 0.0016 0.0178 0 0 0 -10
0.6420 0.0018 0.0172 0 0 0 -10
0.6180 0.0018 0.0169 0 0 0 0
0.6520 0.0012 0.0124 0 0 0 -10
0.6680 0.0015 0.0121 0 0 0 -10
0.6360 0.0018 0.0119 0 0 0 0
0.6580 0.0013 0.0144 0 0 0 -10
0.6320 0.0023 0.0228 0 0 0 -10
0.6320 0.0015 0.0207 0 0 0 0
0.6260 0.0016 0.0122 0 0 0 -10
0.6600 0.0019 0.0083 0 0 0 -10
0.6480 0.0013 0.0091 0 0 0 0
0.6440 0.0006 0.0067 10 0 0 0
0.6460 0.0007 0.0056 10 0 0 0
0.6380 0.0005 0.0045 10 0 0 0
0.6600 0.0005 0.0099 10 0 0 0
0.6500 0.0007 0.0087 10 0 0 0
0.6500 0.0007 0.0087 10 0 0 0
0.6620 0.0015 0.0084 10 0 0 0
0.6620 0.0015 0.0084 10 0 0 0
0.6660 0.0019 0.0083 10 0 0 0
0.6620 0.0019 0.0054 10 0 0 0
0.6600 0.0020 0.0049 10 0 0 0
0.6600 0.0021 0.0045 10 0 0 0
0.6600 0.0021 0.0045 10 0 0 0
0.6460 0.0020 0.0045 10 0 0 0
0.6380 0.0023 0.0050 10 0 0 0
0.6380 0.0023 0.0050 10 0 0 0
0.6440 0.0030 0.0045 0 0 0 0
0.6440 0.0016 0.0050 10 0 0 0
0.6560 0.0018 0.0051 10 0 0 0
0.6620 0.0010 0.0075 10 0 0 0
0.6580 0.0011 0.0075 10 0 0 0
0.6720 0.0019 0.0077 10 0 0 0
0.6680 0.0016 0.0079 10 0 0 0
0.6460 0.0018 0.0106 10 0 0 0
0.6460 0.0018 0.0106 10 0 0 0
0.6520 0.0022 0.0102 10 0 0 0
0.6580 0.0023 0.0128 10 0 0 0
0.6540 0.0020 0.0128 10 0 0 0
0.6560 0.0016 0.0137 10 0 0 0
0.6760 0.0011 0.0140 10 0 0 0
0.6760 0.0011 0.0140 10 0 0 0
0.6740 0.0009 0.0148 10 0 0 0
0.6720 0.0018 0.0136 10 0 0 0
0.6920 0.0018 0.0136 10 0 0 0
0.6680 0.0020 0.0137 10 0 0 0
0.6520 0.0022 0.0153 10 0 0 0
0.6540 0.0023 0.0148 0 0 0 0
0.6880 0.0023 0.0143 0 0 0 -10
0.6680 0.0010 0.0158 0 0 0 -10
0.6660 0.0015 0.0153 0 0 0 -10
0.6600 0.0013 0.0138 0 0 0 0
0.6860 0.0010 0.0047 0 0 0 -10
0.6900 0.0009 0.0106 0 0 0 -10
0.6820 0.0013 0.0146 0 0 0 -10
0.6840 0.0012 0.0150 0 0 0 0
0.6680 0.0016 0.0075 0 0 0 -10
0.6960 0.0019 0.0121 0 0 0 -10
0.6960 0.0014 0.0125 0 0 0 0
0.6820 0.0014 0.0019 0 0 0 -10
0.6780 0.0018 -0.0070 0 0 0 -10
0.6780 0.0016 -0.0087 0 0 0 -10
0.6760 0.0014 -0.0086 0 0 0 0
0.6840 0.0015 -0.0186 10 0 0 0
0.6740 0.0009 -0.0150 10 0 0 0
0.6580 0.0015 -0.0139 10 0 0 0
0.6580 0.0015 -0.0137 10 0 0 0
0.6580 0.0015 -0.0137 10 0 0 0
0.6820 0.0015 -0.0131 10 0 0 0
0.6760 0.0013 -0.0115 10 0 0 0
0.6640 0.0016 -0.0111 10 0 0 0
0.6840 0.0016 -0.0120 10 0 0 0
0.6840 0.0013 -0.0116 10 0 0 0
0.6800 0.0011 -0.0110 10 0 0 0
0.6800 0.0007 -0.0104 10 0 0 0
0.6760 0.0007 -0.0104 10 0 0 0
0.6720 0.0007 -0.0088 10 0 0 0
0.6920 0.0011 -0.0084 0 0 0 0
0.6860 0.0018 -0.0052 10 0 0 0
0.6860 -0.0001 -0.0048 10 0 0 0
0.6900 -0.0002 -0.0036 10 0 0 0
0.6960 0.0003 -0.0036 10 0 0 0
0.6880 0.0007 -0.0047 10 0 0 0
0.6940 0.0003 -0.0047 10 0 0 0
0.6880 0.0004 -0.0066 10 0 0 0
0.6880 0.0004 -0.0066 10 0 0 0
0.6800 0.0007 -0.0068 10 0 0 0
0.6700 0.0005 -0.0049 0 0 0 0
0.6580 0.0018 -0.0064 10 0 0 0
0.6920 0.0010 -0.0075 10 0 0 0
0.6940 0.0014 -0.0077 10 0 0 0
0.6960 0.0016 -0.0069 10 0 0 0
0.6900 0.0018 -0.0071 10 0 0 0
0.6820 0.0014 -0.0070 0 0 0 0
0.6960 0.0018 -0.0096 10 0 0 0
