0.6480 0.0077 -0.1385 0 0 0 10
0.6320 0.0079 -0.1386 0 0 0 10
0.6500 0.0073 -0.1417 0 0 0 10
0.6020 0.0072 -0.1434 0 0 0 10
0.6020 0.0072 -0.1434 0 0 0 10
0.6340 0.0071 -0.1430 0 0 0 10
0.6420 0.0075 -0.1422 0 0 0 10
0.6240 0.0080 -0.1424 0 0 0 10
0.6200 0.0083 -0.1428 0 0 0 10
0.6200 0.0085 -0.1409 0 0 0 10
0.6180 0.0084 -0.1379 0 0 0 10
0.6320 0.0080 -0.1354 0 0 0 10
0.6240 0.0071 -0.1341 0 0 0 10
0.6240 0.0068 -0.1329 0 0 0 10
0.6320 0.0068 -0.1329 0 0 0 10
0.6340 0.0070 -0.1307 0 0 0 10
0.6320 0.0074 -0.1285 0 0 0 10
0.6340 0.0079 -0.1251 0 0 0 10
0.6340 0.0079 -0.1251 0 0 0 10
0.6420 0.0080 -0.1232 0 0 0 10
0.6480 0.0079 -0.1167 0 0 0 10
0.6140 0.0073 -0.1167 0 0 0 0
0.6360 0.0089 -0.1206 0 0 0 10
0.6580 0.0086 -0.1154 0 0 0 10
0.6400 0.0085 -0.1164 0 0 0 10
0.6700 0.0089 -0.1157 0 0 0 10
0.6640 0.0089 -0.1146 0 0 0 10
0.6560 0.0089 -0.1137 0 0 0 10
0.6700 0.0095 -0.1137 0 0 0 10
0.6600 0.0097 -0.1135 0 0 0 10
0.6560 0.0102 -0.1138 0 0 0 10
0.6560 0.0102 -0.1138 0 0 0 10
0.6640 0.0101 -0.1137 0 0 0 10
0.6760 0.0101 -0.1119 0 0 0 10
0.6840 0.0098 -0.1072 0 0 0 10
0.6600 0.0099 -0.1043 0 0 0 10
0.6600 0.0094 -0.1045 0 0 0 10
0.6440 0.0094 -0.1045 0 0 0 10
0.6440 0.0092 -0.1030 0 0 0 10
0.6480 0.0089 -0.1007 0 0 0 10
0.6400 0.0092 -0.0990 0 0 0 10
0.6600 0.0097 -0.0975 0 0 0 10
0.6600 0.0097 -0.0975 0 0 0 10
0.6560 0.0102 -0.0894 0 0 0 10
0.6640 0.0099 -0.0855 0 0 0 10
0.6800 0.0096 -0.0823 0 0 0 10
0.6800 0.0096 -0.0823 0 0 0 10
0.6320 0.0088 -0.0812 0 0 0 10
0.6520 0.0088 -0.0784 0 0 0 10
0.6760 0.0093 -0.0775 0 0 0 10
0.6760 0.0093 -0.0775 0 0 0 10
0.6820 0.0108 -0.0740 0 0 0 10
0.6820 0.0108 -0.0740 0 0 0 10
0.6680 0.0108 -0.0715 0 0 0 10
0.6740 0.0099 -0.0717 0 0 0 10
0.6800 0.0093 -0.0688 0 0 0 10
0.6800 0.0087 -0.0653 0 0 0 0
0.6740 0.0101 -0.0499 0 0 0 10
0.7020 0.0114 -0.0546 0 0 0 10
0.6960 0.0110 -0.0526 0 0 0 0
0.6960 0.0110 -0.0504 0 0 0 10
0.6900 0.0104 -0.0473 0 0 0 10
0.6800 0.0095 -0.0494 0 0 0 10
0.6760 0.0099 -0.0497 0 0 0 0
0.6640 0.0102 -0.0514 0 0 0 10
0.6700 0.0121 -0.0469 0 0 0 10
0.6520 0.0119 -0.0442 0 0 0 0
0.6840 0.0103 -0.0391 0 0 0 10
0.6700 0.0103 -0.0363 0 0 0 0
0.7100 0.0102 -0.0354 0 0 0 10
0.6780 0.0098 -0.0276 0 0 0 10
0.6740 0.0095 -0.0286 0 0 0 0
0.6780 0.0100 -0.0294 0 0 0 10
0.6660 0.0108 -0.0275 0 0 0 10
0.6720 0.0105 -0.0282 0 0 0 10
0.6840 0.0105 -0.0290 0 0 0 0
0.6840 0.0103 -0.0266 0 0 0 10
0.6780 0.0118 -0.0258 0 0 0 10
0.6740 0.0118 -0.0247 0 0 0 0
0.6920 0.0093 -0.0262 0 0 0 10
0.6840 0.0087 -0.0249 0 0 0 10
0.6940 0.0090 -0.0267 0 0 0 0
0.6940 0.0084 -0.0255 0 0 0 10
0.7000 0.0087 -0.0214 0 0 0 10
0.7100 0.0089 -0.0202 0 0 0 0
0.6960 0.0098 -0.0202 0 0 0 10
0.7040 0.0100 -0.0212 0 0 0 10
0.7160 0.0103 -0.0204 0 0 0 0
0.6880 0.0096 -0.0123 0 0 0 10
0.6940 0.0082 -0.0034 0 0 0 0
0.6900 0.0115 0.0115 0 0 0 10
0.6960 0.0107 0.0159 0 0 0 10
0.6880 0.0098 0.0236 0 0 0 0
0.6940 0.0091 0.0447 0 0 0 10
0.6960 0.0090 0.0401 0 0 0 0
0.6920 0.0109 0.0359 0 0 0 -10
0.6920 0.0082 0.0327 0 0 0 -10
0.6900 0.0091 0.0253 0 0 0 -10
0.7000 0.0087 0.0251 0 0 0 -10
0.7100 0.0089 0.0246 0 0 0 0
0.7100 0.0095 0.0214 0 0 0 -10
0.7040 0.0098 0.0197 0 0 0 -10
0.7020 0.0100 0.0167 0 0 0 -10
0.7020 0.0100 0.0167 0 0 0 -10
0.7060 0.0100 0.0177 0 0 0 0
0.6760 0.0087 0.0159 0 0 0 -10
0.7180 0.0095 0.0165 0 0 0 0
0.7100 0.0103 0.0207 0 0 0 -10
0.7360 0.0087 0.0130 0 0 0 -10
0.7240 0.0086 0.0131 0 0 0 0
0.6940 0.0096 0.0093 0 0 0 -10
0.7100 0.0112 0.0120 0 0 0 0
0.6960 0.0103 0.0016 0 0 0 0
0.7040 0.0093 -0.0011 0 0 -10 0
0.6960 0.0082 -0.0096 0 0 -10 0
0.6860 0.0081 -0.0050 0 0 0 0
0.6860 0.0093 0.0101 0 0 0 0
0.6800 0.0093 0.0103 0 0 0 0
0.6900 0.0100 0.0065 0 0 0 0
0.7000 0.0089 -0.0003 0 0 -10 0
0.7020 0.0100 0.0016 0 0 -10 0
0.6660 0.0094 0.0005 0 0 -10 0
0.6700 0.0097 -0.0019 0 0 0 0
0.6720 0.0098 -0.0029 0 0 -10 0
0.6680 0.0100 -0.0045 0 0 0 0
0.7000 0.0112 0.0067 0 0 -10 0
0.6800 0.0121 0.0046 0 0 -10 0
0.6840 0.0113 0.0094 0 0 -10 0
0.6960 0.0108 0.0140 0 0 0 0
0.7100 0.0106 0.0157 0 0 -10 0
0.6980 0.0117 0.0175 0 0 -10 0
0.7120 0.0117 0.0181 0 0 0 0
0.7040 0.0100 0.0174 0 0 -10 0
0.6880 0.0122 0.0169 0 0 -10 0
0.6900 0.0124 0.0175 0 0 0 0
0.7140 0.0121 0.0206 0 0 -10 0
0.7100 0.0147 0.0146 0 0 0 0
0.7000 0.0149 0.0118 0 0 -10 0
0.6900 0.0157 0.0097 0 0 -10 0
0.7020 0.0158 0.0072 0 0 0 0
0.7160 0.0158 0.0051 0 0 -10 0
0.7040 0.0157 0.0042 0 0 0 0
