0.5440 0.0111 -0.3106 0 0 0 10
0.5560 0.0101 -0.3149 0 0 0 10
0.5340 0.0107 -0.3176 0 0 0 10
0.5260 0.0109 -0.3175 0 0 0 10
0.5500 0.0112 -0.3176 0 0 0 10
0.5540 0.0116 -0.3174 0 0 0 10
0.5460 0.0122 -0.3186 0 0 0 10
0.5480 0.0124 -0.3171 0 0 0 10
0.5500 0.0121 -0.3159 0 0 0 10
0.5500 0.0121 -0.3159 0 0 0 10
0.5540 0.0113 -0.3125 0 0 0 10
0.5380 0.0109 -0.3100 0 0 0 10
0.5500 0.0109 -0.3074 0 0 0 10
0.5500 0.0109 -0.3074 0 0 0 10
0.5240 0.0110 -0.3046 0 0 0 10
0.5320 0.0119 -0.3023 0 0 0 10
0.5360 0.0127 -0.3010 0 0 0 10
0.5540 0.0133 -0.2998 0 0 0 10
0.5600 0.0131 -0.2975 0 0 0 10
0.5420 0.0130 -0.2961 0 0 0 10
0.5420 0.0132 -0.2928 0 0 0 10
0.5460 0.0131 -0.2919 0 0 0 10
0.5460 0.0131 -0.2919 0 0 0 10
0.5540 0.0135 -0.2902 0 0 0 10
0.5520 0.0141 -0.2877 0 0 0 10
0.5280 0.0140 -0.2852 0 0 0 10
0.5600 0.0138 -0.2824 0 0 0 10
0.5460 0.0141 -0.2782 0 0 0 10
0.5380 0.0146 -0.2767 0 0 0 10
0.5580 0.0149 -0.2735 0 0 0 10
0.5580 0.0149 -0.2735 0 0 0 10
0.5560 0.0148 -0.2704 0 0 0 10
0.5620 0.0149 -0.2687 0 0 0 10
0.5420 0.0150 -0.2677 0 0 0 10
0.5560 0.0154 -0.2649 0 0 0 10
0.5720 0.0155 -0.2628 0 0 0 10
0.5740 0.0157 -0.2618 0 0 0 10
0.5740 0.0157 -0.2618 0 0 0 10
0.5780 0.0159 -0.2578 0 0 0 10
0.5660 0.0159 -0.2559 0 0 0 10
0.5460 0.0157 -0.2532 0 0 0 10
0.5460 0.0157 -0.2532 0 0 0 10
0.5520 0.0169 -0.2518 0 0 0 10
0.5520 0.0169 -0.2518 0 0 0 10
0.5740 0.0168 -0.2506 0 0 0 10
0.5700 0.0160 -0.2482 0 0 0 10
0.5660 0.0157 -0.2447 0 0 0 10
0.5600 0.0155 -0.2417 0 0 0 10
0.5600 0.0162 -0.2354 0 0 0 10
0.5600 0.0164 -0.2336 0 0 0 10
0.5600 0.0164 -0.2336 0 0 0 10
0.5940 0.0164 -0.2319 0 0 0 10
0.5760 0.0166 -0.2306 0 0 0 10
0.5700 0.0162 -0.2286 0 0 0 10
0.5600 0.0164 -0.2271 0 0 0 10
0.5800 0.0168 -0.2254 0 0 0 10
0.5800 0.0168 -0.2254 0 0 0 10
0.5640 0.0172 -0.2218 0 0 0 10
0.5960 0.0176 -0.2196 0 0 0 10
0.5520 0.0178 -0.2167 0 0 0 10
0.5540 0.0174 -0.2131 0 0 0 10
0.5880 0.0175 -0.2100 0 0 0 10
0.5640 0.0178 -0.2088 0 0 0 10
0.5640 0.0178 -0.2088 0 0 0 10
0.5780 0.0181 -0.2064 0 0 0 10
0.5860 0.0180 -0.2042 0 0 0 10
0.5640 0.0179 -0.2020 0 0 0 10
0.5880 0.0179 -0.1973 0 0 0 10
0.5940 0.0183 -0.1938 0 0 0 10
0.5780 0.0184 -0.1914 0 0 0 10
0.5940 0.0186 -0.1894 0 0 0 10
0.5680 0.0190 -0.1880 0 0 0 10
0.5940 0.0190 -0.1870 0 0 0 10
0.5940 0.0190 -0.1870 0 0 0 10
0.5780 0.0186 -0.1844 0 0 0 10
0.5920 0.0183 -0.1823 0 0 0 10
0.5960 0.0188 -0.1802 0 0 0 10
0.6020 0.0195 -0.1749 0 0 0 10
0.6020 0.0195 -0.1749 0 0 0 10
0.5880 0.0202 -0.1689 0 0 0 10
0.5880 0.0202 -0.1689 0 0 0 10
0.6020 0.0201 -0.1662 0 0 0 10
0.5980 0.0201 -0.1636 0 0 0 10
0.6020 0.0204 -0.1624 0 0 0 10
0.5780 0.0203 -0.1593 0 0 0 10
0.6080 0.0205 -0.1539 0 0 0 10
0.6080 0.0205 -0.1539 0 0 0 10
0.6160 0.0205 -0.1508 0 0 0 10
0.6120 0.0207 -0.1492 0 0 0 10
0.5860 0.0210 -0.1471 0 0 0 10
0.5840 0.0204 -0.1444 0 0 0 10
0.5840 0.0199 -0.1421 0 0 0 10
0.5920 0.0199 -0.1408 0 0 0 10
0.5920 0.0199 -0.1408 0 0 0 10
0.5940 0.0195 -0.1380 0 0 0 10
0.6100 0.0197 -0.1356 0 0 0 10
0.5940 0.0197 -0.1328 0 0 0 10
0.6020 0.0194 -0.1291 0 0 0 10
0.6020 0.0194 -0.1291 0 0 0 10
0.6220 0.0195 -0.1247 0 0 0 10
0.6220 0.0195 -0.1247 0 0 0 10
0.6260 0.0197 -0.1231 0 0 0 10
0.6160 0.0199 -0.1240 0 0 0 10
0.6280 0.0199 -0.1217 0 0 0 10
0.6260 0.0202 -0.1176 0 0 0 10
0.6260 0.0202 -0.1176 0 0 0 10
0.6060 0.0204 -0.1150 0 0 0 10
0.6280 0.0206 -0.1105 0 0 0 10
0.6080 0.0203 -0.1065 0 0 0 10
0.6040 0.0202 -0.1045 0 0 0 10
0.6040 0.0202 -0.1045 0 0 0 10
0.6120 0.0195 -0.1020 0 0 0 10
0.6040 0.0199 -0.0985 0 0 0 10
0.6120 0.0200 -0.0961 0 0 0 10
0.6220 0.0200 -0.0923 0 0 0 10
0.6260 0.0200 -0.0899 0 0 0 10
0.6220 0.0197 -0.0879 0 0 0 10
0.6220 0.0197 -0.0879 0 0 0 10
0.6360 0.0195 -0.0863 0 0 0 10
0.6100 0.0190 -0.0829 0 0 0 10
0.6120 0.0188 -0.0802 0 0 0 10
0.6300 0.0191 -0.0775 0 0 0 10
0.6240 0.0194 -0.0743 0 0 0 10
0.6140 0.0197 -0.0712 0 0 0 10
0.6140 0.0197 -0.0712 0 0 0 10
0.6360 0.0197 -0.0710 0 0 0 10
0.6320 0.0195 -0.0683 0 0 0 10
0.6300 0.0197 -0.0647 0 0 0 10
0.6260 0.0199 -0.0625 0 0 0 10
0.6340 0.0201 -0.0592 0 0 0 10
0.6340 0.0201 -0.0592 0 0 0 10
0.6240 0.0202 -0.0577 0 0 0 10
0.6420 0.0203 -0.0546 0 0 0 10
0.6420 0.0201 -0.0521 0 0 0 10
0.6400 0.0199 -0.0508 0 0 0 10
0.6400 0.0199 -0.0508 0 0 0 10
0.6340 0.0198 -0.0475 0 0 0 10
0.6440 0.0204 -0.0403 0 0 0 10
0.6440 0.0204 -0.0403 0 0 0 10
0.6320 0.0209 -0.0394 0 0 0 10
0.6280 0.0209 -0.0389 0 0 0 10
0.6360 0.0208 -0.0368 0 0 0 10
0.6460 0.0204 -0.0355 0 0 0 10
0.6220 0.0202 -0.0304 0 0 0 0
0.6420 0.0199 -0.0156 0 0 0 10
0.6500 0.0209 -0.0153 0 0 0 10
0.6500 0.0210 -0.0148 0 0 0 10
0.6500 0.0209 -0.0161 0 0 0 10
0.6500 0.0209 -0.0161 0 0 0 10
0.6620 0.0206 -0.0163 0 0 0 10
0.6740 0.0192 -0.0171 0 0 0 10
0.6500 0.0187 -0.0157 0 0 0 10
0.6780 0.0190 -0.0145 0 0 0 10
0.6780 0.0190 -0.0145 0 0 0 10
0.6680 0.0187 -0.0113 0 0 0 10
0.6560 0.0189 -0.0104 0 0 0 10
0.6640 0.0188 -0.0115 0 0 0 10
0.6640 0.0195 -0.0086 0 0 0 10
0.6640 0.0195 -0.0086 0 0 0 10
0.6340 0.0199 0.0031 0 0 0 10
0.6340 0.0199 0.0031 0 0 0 10
0.6700 0.0196 0.0080 0 0 0 10
0.6380 0.0196 0.0097 0 0 0 10
0.6560 0.0194 0.0114 0 0 0 10
0.6560 0.0191 0.0153 0 0 0 10
0.6720 0.0194 0.0157 0 0 0 10
0.6820 0.0194 0.0157 0 0 0 10
0.6920 0.0194 0.0150 0 0 0 10
0.6820 0.0194 0.0198 0 0 0 10
0.6780 0.0193 0.0212 0 0 0 10
0.6880 0.0192 0.0238 0 0 0 10
0.6880 0.0192 0.0238 0 0 0 10
0.6800 0.0193 0.0285 0 0 0 10
0.6720 0.0190 0.0303 0 0 0 10
0.6680 0.0187 0.0322 0 0 0 10
0.6680 0.0187 0.0322 0 0 0 10
0.6760 0.0183 0.0345 0 0 0 10
0.6880 0.0190 0.0364 0 0 0 10
0.6880 0.0190 0.0364 0 0 0 10
0.6700 0.0186 0.0416 0 0 0 10
0.6600 0.0182 0.0457 0 0 0 0
0.6680 0.0179 0.0556 0 0 0 10
0.6580 0.0176 0.0527 0 0 0 10
0.6580 0.0181 0.0524 0 0 0 10
0.6620 0.0176 0.0527 0 0 0 0
0.6780 0.0181 0.0545 0 0 0 10
0.6880 0.0164 0.0593 0 0 0 10
0.6940 0.0166 0.0622 0 0 0 0
0.6760 0.0166 0.0655 0 0 0 10
0.6740 0.0168 0.0735 0 0 0 10
0.6800 0.0176 0.0723 0 0 0 10
0.6800 0.0176 0.0723 0 0 0 0
0.6720 0.0169 0.0787 0 0 0 -10
0.6780 0.0153 0.0845 0 0 0 -10
0.6580 0.0157 0.0869 0 0 0 -10
0.6580 0.0157 0.0869 0 0 0 0
0.6680 0.0163 0.0878 0 0 0 -10
0.6440 0.0154 0.0825 0 0 0 -10
0.6440 0.0154 0.0825 0 0 0 0
0.6480 0.0155 0.0783 0 0 0 -10
0.6500 0.0158 0.0683 0 0 0 -10
0.6500 0.0158 0.0683 0 0 0 0
0.6860 0.0161 0.0634 0 0 0 -10
0.6640 0.0166 0.0601 0 0 0 -10
0.6640 0.0166 0.0601 0 0 0 0
0.6760 0.0163 0.0541 0 0 0 -10
0.6820 0.0161 0.0503 0 0 0 0
0.6680 0.0161 0.0520 0 0 0 -10
0.6880 0.0157 0.0516 0 0 0 -10
0.6720 0.0148 0.0522 0 0 0 0
0.6840 0.0137 0.0488 0 0 0 -10
0.6920 0.0145 0.0488 0 0 0 -10
0.7020 0.0148 0.0502 0 0 0 -10
0.7020 0.0148 0.0502 0 0 0 -10
0.6940 0.0156 0.0509 0 0 0 0
0.6860 0.0156 0.0512 0 0 0 -10
0.6700 0.0151 0.0536 0 0 0 -10
0.6760 0.0153 0.0517 0 0 0 0
0.6820 0.0154 0.0549 0 0 0 -10
0.6800 0.0149 0.0538 0 0 0 -10
0.6780 0.0152 0.0524 0 0 0 0
0.6560 0.0153 0.0454 0 0 0 -10
0.6820 0.0144 0.0427 0 0 0 -10
0.6760 0.0148 0.0386 0 0 0 0
0.6800 0.0158 0.0412 0 0 0 -10
0.6900 0.0157 0.0400 0 0 0 -10
0.6700 0.0153 0.0400 0 0 0 -10
0.6760 0.0150 0.0395 0 0 0 0
0.6720 0.0148 0.0319 0 0 0 -10
0.6800 0.0150 0.0346 0 0 0 -10
0.6980 0.0150 0.0326 0 0 0 -10
0.6720 0.0150 0.0326 0 0 0 0
0.6740 0.0144 0.0341 0 0 0 -10
0.6820 0.0140 0.0331 0 0 0 -10
0.6960 0.0148 0.0334 0 0 0 0
0.6620 0.0161 0.0338 0 0 0 -10
0.6820 0.0163 0.0254 0 0 0 -10
0.6660 0.0167 0.0246 0 0 0 0
0.6700 0.0179 0.0238 0 0 0 -10
0.6780 0.0159 0.0282 0 0 0 -10
0.6600 0.0169 0.0289 0 0 0 0
0.6560 0.0162 0.0207 0 0 0 -10
0.6600 0.0153 0.0187 0 0 0 0
0.6660 0.0153 0.0197 0 0 0 -10
0.6820 0.0142 0.0150 0 0 0 -10
0.6660 0.0139 0.0133 0 0 0 -10
0.6660 0.0139 0.0133 0 0 0 0
0.6800 0.0153 0.0159 0 0 0 -10
0.6880 0.0150 0.0080 0 0 0 -10
0.7000 0.0146 0.0078 0 0 0 -10
0.7000 0.0146 0.0078 0 0 0 0
0.6460 0.0149 -0.0020 0 0 10 0
0.6900 0.0157 -0.0056 0 0 10 0
0.6920 0.0159 -0.0067 0 0 10 0
0.6860 0.0158 -0.0089 0 0 10 0
0.6700 0.0159 -0.0089 0 0 10 0
0.6800 0.0164 -0.0077 0 0 10 0
0.6800 0.0164 -0.0077 0 0 10 0
0.6800 0.0164 -0.0067 0 0 10 0
0.6720 0.0163 -0.0067 0 0 10 0
0.6800 0.0162 -0.0066 0 0 10 0
0.6800 0.0162 -0.0066 0 0 10 0
0.6720 0.0162 -0.0059 0 0 10 0
0.6780 0.0162 -0.0050 0 0 10 0
0.6780 0.0162 -0.0050 0 0 10 0
0.6880 0.0166 -0.0029 0 0 10 0
0.6980 0.0167 -0.0025 0 0 10 0
0.6900 0.0168 -0.0030 0 0 10 0
0.6900 0.0168 -0.0030 0 0 0 0
0.6580 0.0131 -0.0044 0 0 10 0
0.6840 0.0128 -0.0058 0 0 10 0
0.6400 0.0123 -0.0065 0 0 10 0
0.6760 0.0110 -0.0050 0 0 10 0
0.6840 0.0090 -0.0054 0 0 10 0
0.6720 0.0091 -0.0054 0 0 10 0
0.6640 0.0094 -0.0051 0 0 10 0
0.6640 0.0094 -0.0051 0 0 10 0
0.6860 0.0091 -0.0049 0 0 0 0
0.6820 0.0078 -0.0054 0 0 -10 0
0.6880 0.0075 -0.0032 0 0 -10 0
0.6880 0.0075 -0.0032 0 0 -10 0
0.6780 0.0072 -0.0062 0 0 -10 0
0.6840 0.0063 -0.0049 0 0 -10 0
0.6960 0.0060 -0.0034 0 0 -10 0
0.6960 0.0060 -0.0034 0 0 -10 0
0.7040 0.0057 -0.0029 0 0 -10 0
0.7060 0.0058 -0.0030 0 0 0 0
0.6800 0.0058 -0.0023 0 0 10 0
0.6760 0.0059 -0.0016 0 0 10 0
0.6920 0.0065 -0.0030 0 0 10 0
0.6920 0.0065 -0.0030 0 0 10 0
0.6780 0.0076 0.0029 0 0 10 0
0.6980 0.0080 0.0031 0 0 10 0
0.6920 0.0080 0.0035 0 0 0 0
0.6960 0.0086 0.0028 0 0 10 0
0.6960 0.0070 -0.0040 0 0 10 0
0.6640 0.0058 -0.0061 0 0 10 0
0.6640 0.0058 -0.0026 0 0 10 0
0.6840 0.0058 -0.0026 0 0 0 0
0.6880 0.0056 -0.0018 0 0 10 0
0.6880 0.0055 -0.0141 0 0 10 0
0.6880 0.0055 -0.0141 0 0 10 0
0.6720 0.0053 -0.0149 0 0 0 0
0.7000 0.0052 -0.0133 0 0 10 0
0.6720 0.0051 -0.0115 0 0 10 0
0.6780 0.0051 -0.0115 0 0 10 0
0.6640 0.0046 -0.0135 0 0 0 0
0.6840 0.0041 -0.0099 0 0 10 0
0.6900 0.0037 -0.0069 0 0 10 0
0.6900 0.0037 -0.0069 0 0 10 0
0.6840 0.0035 -0.0019 0 0 0 0
0.6860 0.0033 0.0006 0 0 10 0
0.6740 0.0026 -0.0077 0 0 10 0
0.6680 0.0027 -0.0079 0 0 10 0
0.6780 0.0026 -0.0083 0 0 0 0
0.6980 0.0026 -0.0114 0 0 10 0
0.6900 0.0010 -0.0132 0 0 10 0
0.6720 0.0008 -0.0133 0 0 10 0
0.6720 0.0008 -0.0133 0 0 0 0
0.6760 -0.0015 -0.0165 0 0 10 0
0.6900 -0.0014 -0.0205 0 0 10 0
0.7000 -0.0013 -0.0206 0 0 0 0
