0.5220 -0.0016 -0.2825 0 0 0 10
0.5380 -0.0018 -0.2843 0 0 0 10
0.5320 -0.0018 -0.2860 0 0 0 10
0.5300 -0.0017 -0.2858 0 0 0 10
0.5380 -0.0017 -0.2868 0 0 0 10
0.5360 -0.0013 -0.2868 0 0 0 10
0.5360 -0.0013 -0.2868 0 0 0 10
0.5520 -0.0011 -0.2880 0 0 0 10
0.5100 -0.0009 -0.2874 0 0 0 10
0.5340 -0.0009 -0.2867 0 0 0 10
0.5500 -0.0012 -0.2857 0 0 0 10
0.5160 -0.0011 -0.2827 0 0 0 10
0.5060 -0.0010 -0.2807 0 0 0 10
0.5060 -0.0010 -0.2807 0 0 0 10
0.5060 -0.0010 -0.2807 0 0 0 10
0.5340 -0.0015 -0.2783 0 0 0 10
0.5280 -0.0019 -0.2769 0 0 0 10
0.5340 -0.0016 -0.2754 0 0 0 10
0.5340 -0.0016 -0.2754 0 0 0 10
0.5460 -0.0000 -0.2712 0 0 0 10
0.5460 -0.0000 -0.2712 0 0 0 10
0.5240 0.0009 -0.2674 0 0 0 10
0.5420 0.0006 -0.2651 0 0 0 10
0.5360 0.0005 -0.2635 0 0 0 10
0.5360 0.0005 -0.2635 0 0 0 10
0.5320 0.0008 -0.2634 0 0 0 10
0.5520 0.0009 -0.2619 0 0 0 10
0.5460 0.0015 -0.2566 0 0 0 10
0.5460 0.0015 -0.2566 0 0 0 10
0.5260 0.0022 -0.2505 0 0 0 10
0.5260 0.0022 -0.2505 0 0 0 10
0.5260 0.0022 -0.2473 0 0 0 10
0.5240 0.0021 -0.2462 0 0 0 10
0.5380 0.0022 -0.2450 0 0 0 10
0.5380 0.0022 -0.2450 0 0 0 10
0.5180 0.0025 -0.2428 0 0 0 10
0.5440 0.0038 -0.2391 0 0 0 10
0.5440 0.0038 -0.2391 0 0 0 10
0.5360 0.0045 -0.2352 0 0 0 10
0.5600 0.0043 -0.2339 0 0 0 10
0.5540 0.0040 -0.2317 0 0 0 10
0.5440 0.0036 -0.2298 0 0 0 10
0.5440 0.0036 -0.2298 0 0 0 10
0.5440 0.0034 -0.2270 0 0 0 10
0.5260 0.0039 -0.2203 0 0 0 10
0.5320 0.0041 -0.2164 0 0 0 10
0.5560 0.0040 -0.2132 0 0 0 10
0.5560 0.0040 -0.2132 0 0 0 10
0.5500 0.0035 -0.2112 0 0 0 10
0.5560 0.0029 -0.2103 0 0 0 10
0.5660 0.0032 -0.2081 0 0 0 10
0.5720 0.0040 -0.2054 0 0 0 10
0.5720 0.0040 -0.2054 0 0 0 10
0.5600 0.0044 -0.2024 0 0 0 10
0.5560 0.0049 -0.1985 0 0 0 10
0.5700 0.0045 -0.1960 0 0 0 10
0.5540 0.0040 -0.1929 0 0 0 10
0.5440 0.0032 -0.1902 0 0 0 10
0.5440 0.0032 -0.1902 0 0 0 10
0.5560 0.0010 -0.1875 0 0 0 10
0.5660 0.0012 -0.1844 0 0 0 10
0.5960 0.0024 -0.1821 0 0 0 10
0.5960 0.0032 -0.1802 0 0 0 10
0.5740 0.0032 -0.1802 0 0 0 10
0.5880 0.0033 -0.1758 0 0 0 10
0.5880 0.0034 -0.1730 0 0 0 10
0.5920 0.0028 -0.1711 0 0 0 10
0.5900 0.0022 -0.1690 0 0 0 10
0.5940 0.0020 -0.1666 0 0 0 10
0.5720 0.0026 -0.1639 0 0 0 10
0.5720 0.0026 -0.1639 0 0 0 10
0.5700 0.0034 -0.1606 0 0 0 10
0.6220 0.0041 -0.1578 0 0 0 10
0.5920 0.0047 -0.1557 0 0 0 10
0.5880 0.0050 -0.1551 0 0 0 10
0.5800 0.0050 -0.1535 0 0 0 10
0.5960 0.0048 -0.1493 0 0 0 10
0.5960 0.0047 -0.1462 0 0 0 10
0.5840 0.0046 -0.1434 0 0 0 10
0.5840 0.0046 -0.1434 0 0 0 10
0.5860 0.0039 -0.1419 0 0 0 10
0.5840 0.0036 -0.1384 0 0 0 10
0.6140 0.0040 -0.1362 0 0 0 10
0.6140 0.0040 -0.1362 0 0 0 10
0.6160 0.0047 -0.1319 0 0 0 10
0.6200 0.0056 -0.1284 0 0 0 10
0.5900 0.0056 -0.1247 0 0 0 10
0.6040 0.0052 -0.1232 0 0 0 10
0.6200 0.0043 -0.1215 0 0 0 10
0.5940 0.0042 -0.1213 0 0 0 10
0.5940 0.0042 -0.1213 0 0 0 10
0.6060 0.0044 -0.1193 0 0 0 10
0.5880 0.0054 -0.1177 0 0 0 10
0.6240 0.0056 -0.1119 0 0 0 10
0.6240 0.0047 -0.1085 0 0 0 10
0.6220 0.0047 -0.1085 0 0 0 10
0.6320 0.0042 -0.1068 0 0 0 10
0.6180 0.0038 -0.1055 0 0 0 10
0.6260 0.0034 -0.1045 0 0 0 10
0.6360 0.0035 -0.1032 0 0 0 10
0.6180 0.0040 -0.1021 0 0 0 10
0.6440 0.0042 -0.0993 0 0 0 10
0.6460 0.0042 -0.0941 0 0 0 10
0.6420 0.0041 -0.0915 0 0 0 10
0.6480 0.0035 -0.0877 0 0 0 0
0.6500 0.0037 -0.0817 0 0 0 10
0.6080 0.0049 -0.0724 0 0 0 10
0.6260 0.0037 -0.0669 0 0 0 10
0.6180 0.0045 -0.0665 0 0 0 10
0.6280 0.0049 -0.0660 0 0 0 10
0.6280 0.0049 -0.0657 0 0 0 10
0.6340 0.0047 -0.0620 0 0 0 10
0.6040 0.0042 -0.0611 0 0 0 10
0.6120 0.0041 -0.0596 0 0 0 10
0.6120 0.0041 -0.0596 0 0 0 10
0.6180 0.0039 -0.0576 0 0 0 10
0.6140 0.0042 -0.0569 0 0 0 10
0.6260 0.0043 -0.0546 0 0 0 10
0.6340 0.0048 -0.0519 0 0 0 10
0.6380 0.0046 -0.0500 0 0 0 10
0.6300 0.0044 -0.0500 0 0 0 10
0.6300 0.0044 -0.0500 0 0 0 0
0.6280 0.0039 -0.0426 0 0 0 10
0.6280 0.0030 -0.0387 0 0 0 10
0.6280 0.0030 -0.0387 0 0 0 0
0.6460 0.0027 -0.0375 0 0 0 10
0.6720 0.0037 -0.0339 0 0 0 0
0.6600 0.0041 -0.0305 0 0 0 10
0.6620 0.0040 -0.0295 0 0 0 0
0.6700 0.0039 -0.0261 0 0 0 10
0.6580 0.0042 -0.0204 0 0 0 10
0.6580 0.0042 -0.0204 0 0 0 0
0.6800 0.0047 -0.0176 0 0 0 10
0.6780 0.0040 -0.0111 0 0 0 0
0.6680 0.0038 -0.0057 0 0 0 10
0.6680 0.0044 -0.0068 0 0 0 10
0.6680 0.0036 -0.0086 0 0 0 0
0.6800 0.0031 0.0112 0 0 0 10
0.6740 0.0028 0.0090 0 0 0 10
0.6880 0.0026 0.0074 0 0 0 0
0.6700 0.0016 0.0116 0 0 -10 0
0.6640 0.0021 0.0107 0 0 -10 0
0.6620 0.0025 0.0138 0 0 0 0
0.6620 0.0018 0.0108 0 0 -10 0
0.6620 0.0011 0.0148 0 0 -10 0
0.6640 0.0002 0.0163 0 0 -10 0
0.6820 -0.0001 0.0185 0 0 0 0
0.6760 0.0034 0.0214 0 0 -10 0
0.6860 0.0038 0.0287 0 0 -10 0
0.6720 0.0040 0.0260 0 0 0 0
