0.6040 0.0038 -0.1141 0 0 0 10
0.6120 0.0049 -0.1202 0 0 0 10
0.6280 0.0052 -0.1197 0 0 0 10
0.6280 0.0052 -0.1197 0 0 0 10
0.6280 0.0052 -0.1197 0 0 0 10
0.6320 0.0048 -0.1206 0 0 0 10
0.6200 0.0040 -0.1208 0 0 0 10
0.6240 0.0047 -0.1199 0 0 0 10
0.6400 0.0054 -0.1175 0 0 0 10
0.6400 0.0054 -0.1175 0 0 0 10
0.6240 0.0054 -0.1146 0 0 0 10
0.6160 0.0042 -0.1125 0 0 0 10
0.5960 0.0026 -0.1111 0 0 0 10
0.6100 0.0013 -0.1086 0 0 0 10
0.6440 0.0015 -0.1068 0 0 0 10
0.6260 0.0019 -0.1042 0 0 0 10
0.6320 0.0033 -0.1017 0 0 0 10
0.6200 0.0044 -0.0997 0 0 0 10
0.6240 0.0044 -0.0985 0 0 0 10
0.6240 0.0044 -0.0985 0 0 0 10
0.6280 0.0045 -0.0959 0 0 0 10
0.6280 0.0043 -0.0942 0 0 0 10
0.6160 0.0050 -0.0925 0 0 0 10
0.6480 0.0047 -0.0906 0 0 0 10
0.6280 0.0043 -0.0884 0 0 0 10
0.6280 0.0043 -0.0884 0 0 0 10
0.6380 0.0041 -0.0863 0 0 0 10
0.6360 0.0048 -0.0828 0 0 0 10
0.6360 0.0048 -0.0828 0 0 0 10
0.6300 0.0053 -0.0802 0 0 0 10
0.6300 0.0053 -0.0802 0 0 0 10
0.6300 0.0051 -0.0784 0 0 0 10
0.6320 0.0048 -0.0768 0 0 0 10
0.6420 0.0043 -0.0749 0 0 0 10
0.6660 0.0039 -0.0735 0 0 0 10
0.6660 0.0039 -0.0735 0 0 0 10
0.6500 0.0041 -0.0709 0 0 0 10
0.6680 0.0050 -0.0686 0 0 0 10
0.6560 0.0056 -0.0653 0 0 0 10
0.6400 0.0058 -0.0624 0 0 0 10
0.6420 0.0063 -0.0624 0 0 0 10
0.6420 0.0063 -0.0624 0 0 0 10
0.6540 0.0065 -0.0589 0 0 0 10
0.6660 0.0062 -0.0546 0 0 0 10
0.6740 0.0061 -0.0523 0 0 0 10
0.6740 0.0061 -0.0523 0 0 0 10
0.6660 0.0055 -0.0506 0 0 0 10
0.6580 0.0056 -0.0491 0 0 0 10
0.6580 0.0056 -0.0491 0 0 0 10
0.6720 0.0063 -0.0464 0 0 0 10
0.6740 0.0068 -0.0427 0 0 0 10
0.6680 0.0069 -0.0406 0 0 0 10
0.6520 0.0066 -0.0374 0 0 0 10
0.6520 0.0066 -0.0374 0 0 0 10
0.6480 0.0062 -0.0351 0 0 0 10
0.6640 0.0061 -0.0346 0 0 0 10
0.6540 0.0065 -0.0321 0 0 0 10
0.6440 0.0072 -0.0283 0 0 0 10
0.6420 0.0075 -0.0257 0 0 0 10
0.6720 0.0075 -0.0229 0 0 0 10
0.6580 0.0074 -0.0197 0 0 0 10
0.6540 0.0075 -0.0163 0 0 0 10
0.6760 0.0080 -0.0134 0 0 0 0
0.6900 0.0068 -0.0043 0 0 0 10
0.6640 0.0063 -0.0050 0 0 0 10
0.6860 0.0057 -0.0054 0 0 0 0
0.6740 0.0047 -0.0030 0 0 0 10
0.6740 0.0053 -0.0007 0 0 0 0
0.6820 0.0061 0.0032 0 0 -10 0
0.6860 0.0059 0.0075 0 0 0 0
0.6920 0.0071 0.0035 0 0 -10 0
0.6940 0.0057 0.0030 0 0 -10 0
0.6940 0.0057 0.0007 0 0 0 0
0.7000 0.0070 0.0056 0 0 -10 0
0.6900 0.0068 -0.0078 0 0 0 0
0.6820 0.0099 -0.0100 0 0 0 0
0.6480 0.0084 0.0009 0 0 -10 0
0.6520 0.0084 -0.0008 0 0 0 0
0.6480 0.0092 -0.0081 0 0 -10 0
0.6640 0.0105 -0.0048 0 0 0 0
0.6680 0.0105 0.0042 0 0 -10 0
0.6820 0.0115 0.0067 0 0 -10 0
0.6900 0.0109 -0.0071 0 0 0 0
0.6900 0.0105 0.0016 0 0 10 0
0.6780 0.0105 0.0088 0 0 10 0
0.6780 0.0112 0.0084 0 0 10 0
0.6780 0.0112 0.0084 0 0 10 0
0.6760 0.0120 0.0074 0 0 0 0
0.6920 0.0080 -0.0054 0 0 10 0
0.7040 0.0071 -0.0105 0 0 10 0
0.6860 0.0062 -0.0074 0 0 0 0
0.7080 0.0072 -0.0049 0 0 10 0
0.7000 0.0072 0.0016 0 0 10 0
0.7160 0.0072 0.0031 0 0 0 0
0.6600 0.0082 -0.0021 0 0 10 0
0.6620 0.0066 0.0020 0 0 10 0
0.6620 0.0069 0.0074 0 0 10 0
0.6560 0.0075 0.0065 0 0 0 0
0.6940 0.0070 -0.0021 0 0 0 0
0.6780 0.0066 0.0034 0 0 -10 0
0.6980 0.0057 -0.0030 0 0 0 0
0.7060 0.0089 -0.0019 0 0 -10 0
0.6640 0.0082 -0.0008 0 0 0 0
