0.6084 0.0053 -0.0074 0 30 0 0
0.6084 0.0053 -0.0074 0 30 0 0
0.6021 0.0055 -0.0068 0 30 0 0
0.6084 0.0055 -0.0077 0 30 0 0
0.6105 0.0054 -0.0102 0 30 0 0
0.6189 0.0056 -0.0105 0 30 0 0
0.6189 0.0056 -0.0105 0 30 0 0
0.6232 0.0056 -0.0061 0 30 0 0
0.6232 0.0056 -0.0061 0 30 0 0
0.6126 0.0054 -0.0063 0 30 0 0
0.6337 0.0052 -0.0027 0 30 0 0
0.6189 0.0051 -0.0030 0 30 0 0
0.6189 0.0051 -0.0030 0 30 0 0
0.6274 0.0050 -0.0034 0 30 0 0
0.6316 0.0053 -0.0039 0 30 0 0
0.6274 0.0055 -0.0028 0 30 0 0
0.6189 0.0059 -0.0037 0 30 0 0
0.6189 0.0059 -0.0037 0 30 0 0
0.6316 0.0064 -0.0034 0 30 0 0
0.6105 0.0066 -0.0035 0 30 0 0
0.6168 0.0064 -0.0043 0 30 0 0
0.6274 0.0067 -0.0049 0 30 0 0
0.6337 0.0070 -0.0058 0 30 0 0
0.6337 0.0070 -0.0058 0 30 0 0
0.6274 0.0075 -0.0060 0 30 0 0
0.6105 0.0071 -0.0069 0 30 0 0
0.6274 0.0068 -0.0062 0 30 0 0
0.6147 0.0060 -0.0064 0 30 0 0
0.6147 0.0060 -0.0064 0 30 0 0
0.6189 0.0053 -0.0066 0 30 0 0
0.6505 0.0056 -0.0072 0 30 0 0
0.6295 0.0060 -0.0124 0 30 0 0
0.6189 0.0060 -0.0130 0 30 0 0
0.5916 0.0060 -0.0166 0 30 0 0
0.5916 0.0060 -0.0166 0 30 0 0
0.6337 0.0061 -0.0170 0 30 0 0
0.6126 0.0064 -0.0153 0 30 0 0
0.6063 0.0063 -0.0117 0 30 0 0
0.6105 0.0060 -0.0113 0 30 0 0
0.6105 0.0058 -0.0117 0 30 0 0
0.6105 0.0058 -0.0117 0 30 0 0
0.6232 0.0059 -0.0093 0 30 0 0
0.6358 0.0058 -0.0091 0 30 0 0
0.6253 0.0055 -0.0080 0 30 0 0
0.6211 0.0048 -0.0082 0 30 0 0
0.6211 0.0048 -0.0082 0 30 0 0
0.6211 0.0042 -0.0076 0 30 0 0
0.6063 0.0045 -0.0082 0 30 0 0
0.6126 0.0050 -0.0074 0 30 0 0
0.6337 0.0053 -0.0076 0 30 0 0
0.6189 0.0057 -0.0088 0 30 0 0
0.6189 0.0057 -0.0088 0 30 0 0
0.6147 0.0059 -0.0097 0 30 0 0
0.6400 0.0062 -0.0138 0 30 0 0
0.6211 0.0060 -0.0126 0 30 0 0
0.6295 0.0061 -0.0127 0 30 0 0
0.6295 0.0062 -0.0115 0 30 0 0
0.6379 0.0062 -0.0115 0 30 0 0
0.6295 0.0062 -0.0118 0 30 0 0
0.6211 0.0063 -0.0111 0 30 0 0
0.6253 0.0062 -0.0116 0 30 0 0
0.6000 0.0057 -0.0124 0 30 0 0
0.6000 0.0057 -0.0124 0 30 0 0
0.5958 0.0052 -0.0127 0 0 0 0
0.6337 0.0049 -0.0139 0 30 0 0
0.6000 0.0050 -0.0123 0 30 0 0
0.6316 0.0045 -0.0151 0 30 0 0
0.6000 0.0050 -0.0166 0 30 0 0
0.6021 0.0051 -0.0177 0 30 0 0
0.6021 0.0051 -0.0177 0 30 0 0
0.6147 0.0049 -0.0201 0 0 0 0
0.6505 0.0040 -0.0255 0 30 0 0
0.6168 0.0050 -0.0270 0 30 0 0
0.6274 0.0051 -0.0266 0 30 0 0
0.6316 0.0052 -0.0265 0 0 0 0
0.6316 0.0041 -0.0283 30 0 0 0
0.6442 0.0047 -0.0272 30 0 0 0
0.6147 0.0052 -0.0270 30 0 0 0
0.6379 0.0051 -0.0291 30 0 0 0
0.6021 0.0047 -0.0293 0 0 0 0
0.6105 0.0049 -0.0331 30 0 0 0
0.6442 0.0057 -0.0320 30 0 0 0
0.6211 0.0056 -0.0316 30 0 0 0
0.6211 0.0056 -0.0316 0 0 0 0
0.5874 0.0047 -0.0271 0 30 0 0
0.6084 0.0053 -0.0267 0 30 0 0
0.5832 0.0059 -0.0267 0 30 0 0
0.5832 0.0062 -0.0267 0 30 0 0
0.5832 0.0062 -0.0267 0 0 0 0
0.5832 0.0071 -0.0261 0 30 0 0
0.5937 0.0061 -0.0261 0 30 0 0
0.5937 0.0061 -0.0261 0 30 0 0
0.6000 0.0058 -0.0262 0 0 0 0
0.5958 0.0061 -0.0270 0 30 0 0
0.5768 0.0062 -0.0259 0 30 0 0
0.5768 0.0061 -0.0256 0 30 0 0
0.5979 0.0058 -0.0266 0 0 0 0
0.6168 0.0054 -0.0271 0 30 0 0
0.6274 0.0060 -0.0361 0 0 0 0
0.5853 0.0066 -0.0255 0 -30 0 0
0.5958 0.0059 -0.0291 0 -30 0 0
0.6232 0.0057 -0.0271 0 -30 0 0
0.6189 0.0060 -0.0257 0 -30 0 0
0.6000 0.0064 -0.0227 0 -30 0 0
0.6000 0.0064 -0.0227 0 -30 0 0
0.6168 0.0073 -0.0220 0 0 0 0
0.5937 0.0079 -0.0209 0 -30 0 0
0.6126 0.0064 -0.0240 0 -30 0 0
0.5874 0.0064 -0.0240 0 -30 0 0
0.5874 0.0063 -0.0242 0 -30 0 0
0.6000 0.0061 -0.0254 0 -30 0 0
0.5874 0.0060 -0.0255 0 -30 0 0
0.6126 0.0064 -0.0261 0 -30 0 0
0.6126 0.0064 -0.0261 0 -30 0 0
0.6189 0.0067 -0.0257 0 -30 0 0
0.5895 0.0070 -0.0251 0 -30 0 0
0.6000 0.0073 -0.0259 0 -30 0 0
0.6000 0.0075 -0.0254 0 -30 0 0
0.6000 0.0075 -0.0254 0 -30 0 0
0.5937 0.0079 -0.0248 0 -30 0 0
0.6105 0.0071 -0.0227 0 -30 0 0
0.5937 0.0065 -0.0217 0 -30 0 0
0.5916 0.0069 -0.0222 0 -30 0 0
0.5916 0.0069 -0.0222 0 -30 0 0
0.6063 0.0073 -0.0221 0 -30 0 0
0.6147 0.0071 -0.0229 0 -30 0 0
0.6147 0.0070 -0.0232 0 -30 0 0
0.6211 0.0069 -0.0233 0 -30 0 0
0.6274 0.0060 -0.0234 0 -30 0 0
0.6274 0.0060 -0.0234 0 -30 0 0
0.6126 0.0056 -0.0244 0 -30 0 0
0.6232 0.0050 -0.0241 0 0 0 0
0.6126 0.0050 -0.0230 -30 0 0 0
0.6021 0.0051 -0.0222 -30 0 0 0
0.6084 0.0055 -0.0221 -30 0 0 0
0.6105 0.0058 -0.0222 -30 0 0 0
0.6042 0.0064 -0.0228 -30 0 0 0
0.6042 0.0064 -0.0228 -30 0 0 0
0.6105 0.0064 -0.0239 -30 0 0 0
0.6126 0.0064 -0.0246 -30 0 0 0
0.6274 0.0058 -0.0252 -30 0 0 0
0.5895 0.0055 -0.0257 -30 0 0 0
0.5895 0.0055 -0.0257 -30 0 0 0
0.6021 0.0053 -0.0262 -30 0 0 0
0.6105 0.0056 -0.0263 -30 0 0 0
0.6126 0.0058 -0.0256 -30 0 0 0
0.6168 0.0059 -0.0256 -30 0 0 0
0.6232 0.0064 -0.0250 -30 0 0 0
0.6232 0.0064 -0.0250 -30 0 0 0
0.6021 0.0066 -0.0244 -30 0 0 0
0.6105 0.0066 -0.0247 -30 0 0 0
0.6253 0.0064 -0.0242 0 0 0 0
0.6337 0.0062 -0.0234 0 -30 0 0
0.6274 0.0066 -0.0239 0 -30 0 0
0.6274 0.0066 -0.0239 0 -30 0 0
0.6168 0.0066 -0.0213 0 -30 0 0
0.6189 0.0067 -0.0227 0 -30 0 0
0.6337 0.0069 -0.0230 0 -30 0 0
0.5789 0.0071 -0.0204 0 -30 0 0
0.6063 0.0073 -0.0208 0 -30 0 0
0.6063 0.0073 -0.0208 0 -30 0 0
0.6021 0.0072 -0.0196 0 -30 0 0
0.6000 0.0074 -0.0205 0 -30 0 0
0.6189 0.0080 -0.0198 0 -30 0 0
0.6063 0.0084 -0.0190 0 -30 0 0
0.6084 0.0086 -0.0182 0 -30 0 0
0.6084 0.0086 -0.0182 0 -30 0 0
0.5874 0.0089 -0.0175 0 -30 0 0
0.6211 0.0085 -0.0147 0 -30 0 0
0.5979 0.0083 -0.0141 0 -30 0 0
0.6042 0.0079 -0.0137 0 -30 0 0
0.6042 0.0079 -0.0137 0 0 0 0
0.6337 0.0088 -0.0164 30 0 0 0
0.6168 0.0093 -0.0161 30 0 0 0
0.6211 0.0094 -0.0166 30 0 0 0
0.6274 0.0090 -0.0157 30 0 0 0
0.6000 0.0085 -0.0167 30 0 0 0
0.6316 0.0083 -0.0167 30 0 0 0
0.6000 0.0079 -0.0177 30 0 0 0
0.6189 0.0079 -0.0184 30 0 0 0
0.6253 0.0079 -0.0184 30 0 0 0
0.6253 0.0079 -0.0184 30 0 0 0
0.6126 0.0082 -0.0179 30 0 0 0
0.6253 0.0077 -0.0183 30 0 0 0
0.6042 0.0072 -0.0192 30 0 0 0
0.6042 0.0072 -0.0192 30 0 0 0
0.5853 0.0073 -0.0179 30 0 0 0
0.5853 0.0073 -0.0181 30 0 0 0
0.5853 0.0073 -0.0181 30 0 0 0
0.5979 0.0076 -0.0168 30 0 0 0
0.5937 0.0074 -0.0164 30 0 0 0
0.5937 0.0074 -0.0164 30 0 0 0
0.6295 0.0074 -0.0167 30 0 0 0
0.5937 0.0075 -0.0169 30 0 0 0
0.6021 0.0068 -0.0175 30 0 0 0
0.6021 0.0068 -0.0175 30 0 0 0
0.6000 0.0067 -0.0169 30 0 0 0
0.6168 0.0064 -0.0181 0 0 0 0
0.6442 0.0064 -0.0182 0 -30 0 0
0.6021 0.0063 -0.0169 0 -30 0 0
0.6147 0.0069 -0.0176 0 -30 0 0
0.6316 0.0074 -0.0178 0 -30 0 0
0.6189 0.0083 -0.0186 0 -30 0 0
0.5979 0.0091 -0.0180 0 -30 0 0
0.5853 0.0092 -0.0180 0 -30 0 0
0.5853 0.0092 -0.0180 0 -30 0 0
0.6189 0.0083 -0.0187 0 -30 0 0
0.6189 0.0083 -0.0187 0 -30 0 0
0.5937 0.0079 -0.0169 0 -30 0 0
0.6337 0.0078 -0.0167 0 -30 0 0
0.6126 0.0082 -0.0162 0 0 0 0
0.6168 0.0085 -0.0144 30 0 0 0
0.6105 0.0083 -0.0136 30 0 0 0
0.6084 0.0082 -0.0137 30 0 0 0
0.6211 0.0081 -0.0153 30 0 0 0
0.6316 0.0079 -0.0152 30 0 0 0
0.6316 0.0082 -0.0153 30 0 0 0
0.6189 0.0082 -0.0153 30 30 0 0
0.5979 0.0086 -0.0157 30 30 0 0
0.6232 0.0085 -0.0162 30 30 0 0
0.6232 0.0085 -0.0162 30 30 0 0
0.6042 0.0087 -0.0186 30 30 0 0
0.6042 0.0087 -0.0186 30 30 0 0
0.5937 0.0088 -0.0190 30 30 0 0
0.6084 0.0092 -0.0197 30 30 0 0
0.6042 0.0091 -0.0200 30 30 0 0
0.6042 0.0091 -0.0200 30 30 0 0
0.6105 0.0085 -0.0212 30 30 0 0
0.5853 0.0080 -0.0218 30 30 0 0
0.5853 0.0080 -0.0218 30 30 0 0
0.6000 0.0079 -0.0250 30 30 0 0
0.6000 0.0075 -0.0250 30 30 0 0
0.5979 0.0073 -0.0247 30 30 0 0
0.5979 0.0073 -0.0247 0 30 0 0
0.5937 0.0072 -0.0245 0 30 0 0
0.5853 0.0073 -0.0258 0 30 0 0
0.5958 0.0075 -0.0251 0 30 0 0
0.6105 0.0072 -0.0243 0 30 0 0
0.6105 0.0072 -0.0243 0 30 0 0
0.6168 0.0070 -0.0242 0 30 0 0
0.6211 0.0070 -0.0250 0 30 0 0
0.6063 0.0070 -0.0246 0 30 0 0
0.6063 0.0070 -0.0246 0 30 0 0
0.5895 0.0076 -0.0267 0 30 0 0
0.5895 0.0076 -0.0267 0 30 0 0
0.6253 0.0080 -0.0293 0 30 0 0
0.6126 0.0075 -0.0287 0 30 0 0
0.6126 0.0073 -0.0261 0 30 0 0
0.6232 0.0073 -0.0258 0 30 0 0
0.6232 0.0073 -0.0258 0 30 0 0
0.6189 0.0066 -0.0252 0 30 0 0
0.6084 0.0059 -0.0228 0 30 0 0
0.6084 0.0058 -0.0228 0 30 0 0
0.6211 0.0058 -0.0228 0 30 0 0
0.6189 0.0064 -0.0207 0 30 0 0
0.6274 0.0071 -0.0206 0 30 0 0
0.6211 0.0075 -0.0186 0 30 0 0
0.6211 0.0077 -0.0186 0 30 0 0
0.6084 0.0075 -0.0170 0 30 0 0
0.6084 0.0075 -0.0170 0 30 0 0
0.6105 0.0073 -0.0172 0 30 0 0
0.6568 0.0071 -0.0167 0 30 0 0
0.6463 0.0073 -0.0171 0 30 0 0
0.6295 0.0074 -0.0197 0 30 0 0
0.6358 0.0073 -0.0196 0 30 0 0
0.6358 0.0073 -0.0196 0 30 0 0
0.6421 0.0074 -0.0168 0 30 0 0
0.6274 0.0074 -0.0168 0 30 0 0
0.6337 0.0074 -0.0157 0 30 0 0
0.6147 0.0070 -0.0165 0 30 0 0
0.6295 0.0066 -0.0171 0 30 0 0
0.6316 0.0064 -0.0192 0 30 0 0
0.6042 0.0062 -0.0198 0 30 0 0
0.6042 0.0062 -0.0198 0 30 0 0
0.6189 0.0065 -0.0195 0 30 0 0
0.6063 0.0070 -0.0180 0 30 0 0
0.6063 0.0070 -0.0180 0 30 0 0
0.6126 0.0067 -0.0179 0 30 0 0
0.6105 0.0066 -0.0153 0 30 0 0
0.6063 0.0075 -0.0167 0 30 0 0
0.6063 0.0075 -0.0167 0 30 0 0
0.6147 0.0071 -0.0173 0 30 0 0
0.6042 0.0071 -0.0173 0 30 0 0
0.6105 0.0070 -0.0167 0 30 0 0
0.6063 0.0074 -0.0171 0 30 0 0
0.6316 0.0075 -0.0171 0 30 0 0
0.6316 0.0075 -0.0171 0 30 0 0
0.6189 0.0068 -0.0170 0 30 0 0
0.6126 0.0062 -0.0168 0 30 0 0
0.6295 0.0056 -0.0175 0 30 0 0
0.6421 0.0058 -0.0166 0 30 0 0
0.6400 0.0063 -0.0183 0 30 0 0
0.6168 0.0063 -0.0183 0 30 0 0
0.6168 0.0062 -0.0186 0 30 0 0
0.6189 0.0057 -0.0186 0 30 0 0
0.6168 0.0056 -0.0188 0 30 0 0
0.6232 0.0055 -0.0188 0 30 0 0
0.6232 0.0055 -0.0188 0 30 0 0
0.6274 0.0058 -0.0186 0 30 0 0
0.6274 0.0059 -0.0179 0 30 0 0
0.6442 0.0060 -0.0171 0 30 0 0
0.6295 0.0065 -0.0175 0 30 0 0
0.6295 0.0065 -0.0175 0 30 0 0
0.6589 0.0068 -0.0160 0 30 0 0
0.6379 0.0067 -0.0165 0 30 0 0
0.6379 0.0067 -0.0165 0 30 0 0
0.6316 0.0077 -0.0157 0 30 0 0
0.6316 0.0077 -0.0157 0 30 0 0
0.6105 0.0078 -0.0153 0 30 0 0
0.6400 0.0072 -0.0175 0 30 0 0
0.6295 0.0071 -0.0176 0 30 0 0
0.6295 0.0071 -0.0176 0 30 0 0
0.6232 0.0070 -0.0150 0 0 0 0
0.6232 0.0073 -0.0142 0 30 0 0
0.6168 0.0064 -0.0144 0 30 0 0
0.6105 0.0054 -0.0170 0 30 0 0
0.6105 0.0046 -0.0170 0 30 0 0
0.6211 0.0044 -0.0192 0 0 0 0
0.6253 0.0054 -0.0194 0 30 0 0
0.6547 0.0042 -0.0193 0 30 0 0
0.6547 0.0042 -0.0193 0 30 0 0
0.6463 0.0041 -0.0179 0 0 0 0
0.6379 0.0041 -0.0178 0 30 0 0
0.6358 0.0039 -0.0190 0 30 0 0
0.6337 0.0039 -0.0195 0 30 0 0
0.6400 0.0042 -0.0193 0 30 0 0
0.6400 0.0042 -0.0193 0 0 0 0
0.6442 0.0049 -0.0200 30 0 0 0
0.6526 0.0044 -0.0200 30 0 0 0
0.6526 0.0044 -0.0200 30 0 0 0
0.6526 0.0044 -0.0200 30 0 0 0
0.6526 0.0044 -0.0200 30 0 0 0
0.6463 0.0047 -0.0210 30 0 0 0
0.6105 0.0048 -0.0192 30 0 0 0
0.6295 0.0046 -0.0200 30 0 0 0
0.6295 0.0046 -0.0200 30 0 0 0
0.6211 0.0046 -0.0203 30 0 0 0
0.6463 0.0050 -0.0223 30 0 0 0
0.6400 0.0051 -0.0223 30 0 0 0
0.6400 0.0051 -0.0223 30 0 0 0
0.6126 0.0049 -0.0242 30 0 0 0
0.6358 0.0050 -0.0277 30 0 0 0
0.6274 0.0049 -0.0277 30 0 0 0
0.6274 0.0049 -0.0277 30 0 0 0
0.6211 0.0043 -0.0303 0 0 0 0
0.6168 0.0041 -0.0313 0 30 0 0
0.6274 0.0045 -0.0300 0 30 0 0
0.6021 0.0039 -0.0304 0 30 0 0
0.6232 0.0039 -0.0304 0 30 0 0
0.6232 0.0039 -0.0304 0 0 0 0
0.6084 0.0050 -0.0315 0 30 0 0
0.6084 0.0047 -0.0295 0 30 0 0
0.6168 0.0048 -0.0292 0 30 0 0
0.5958 0.0047 -0.0291 0 30 0 0
0.5958 0.0047 -0.0291 0 0 0 0
0.6316 0.0052 -0.0299 0 30 0 0
0.6000 0.0056 -0.0273 0 30 0 0
0.6189 0.0052 -0.0262 0 30 0 0
0.6147 0.0045 -0.0265 0 30 0 0
0.6147 0.0045 -0.0265 0 0 0 0
0.6084 0.0047 -0.0247 0 30 0 0
0.6084 0.0059 -0.0295 0 30 0 0
0.6021 0.0045 -0.0325 0 30 0 0
0.6042 0.0046 -0.0324 0 0 0 0
0.6147 0.0053 -0.0324 0 30 0 0
0.5937 0.0071 -0.0383 0 30 0 0
0.6253 0.0070 -0.0372 0 30 0 0
0.6126 0.0066 -0.0365 0 0 0 0
0.6021 0.0057 -0.0385 0 30 0 0
0.6211 0.0062 -0.0357 0 30 0 0
0.6168 0.0058 -0.0366 0 30 0 0
0.6063 0.0054 -0.0358 0 0 0 0
0.5979 0.0064 -0.0344 0 0 0 30
0.5937 0.0068 -0.0289 0 0 0 30
0.6274 0.0063 -0.0276 0 0 0 0
0.6232 0.0064 -0.0324 0 0 0 30
0.6084 0.0068 -0.0281 0 0 0 30
0.6147 0.0068 -0.0248 0 0 0 0
0.5832 0.0068 -0.0264 0 0 0 30
0.5895 0.0062 -0.0142 0 0 0 0
0.6126 0.0071 -0.0119 0 0 0 30
0.6295 0.0065 -0.0082 0 0 0 30
0.6232 0.0073 -0.0082 0 0 0 30
0.6211 0.0073 -0.0082 0 0 0 0
0.6295 0.0075 0.0005 0 -30 0 0
0.5958 0.0069 0.0049 0 -30 0 0
0.6084 0.0062 0.0021 0 -30 0 0
0.6084 0.0064 0.0023 0 -30 0 0
0.6021 0.0064 0.0023 0 -30 0 0
0.5895 0.0062 0.0020 0 -30 0 0
0.5768 0.0060 0.0013 0 -30 0 0
0.5579 0.0058 0.0011 0 -30 0 0
0.5895 0.0055 0.0038 0 -30 0 0
0.6000 0.0055 0.0038 0 -30 0 0
0.6084 0.0055 0.0085 0 -30 0 0
0.5895 0.0053 0.0077 0 -30 0 0
0.5811 0.0053 0.0086 0 0 0 0
0.6000 0.0053 0.0051 30 0 0 0
0.6021 0.0054 0.0023 30 0 0 0
0.5853 0.0049 0.0057 30 0 0 0
0.5705 0.0047 0.0078 30 0 0 0
0.5705 0.0047 0.0078 30 0 0 0
0.5874 0.0046 0.0084 0 0 0 0
0.5768 0.0049 0.0132 0 -30 0 0
0.5663 0.0055 0.0133 0 -30 0 0
0.5853 0.0059 0.0131 0 -30 0 0
0.5895 0.0060 0.0132 0 -30 0 0
0.5895 0.0060 0.0132 0 -30 0 0
0.5811 0.0067 0.0132 0 -30 0 0
0.5579 0.0067 0.0145 0 -30 0 0
0.5705 0.0065 0.0144 0 -30 0 0
0.5789 0.0062 0.0156 0 -30 0 0
0.5789 0.0062 0.0156 0 -30 0 0
0.5768 0.0057 0.0175 0 -30 0 0
0.5768 0.0057 0.0175 0 -30 0 0
0.5726 0.0064 0.0190 0 -30 0 0
0.5832 0.0065 0.0188 0 -30 0 0
0.5916 0.0065 0.0213 0 -30 0 0
0.5684 0.0058 0.0213 0 -30 0 0
0.5789 0.0055 0.0208 0 -30 0 0
0.5747 0.0053 0.0206 0 -30 0 0
0.5747 0.0053 0.0206 0 -30 0 0
0.5747 0.0055 0.0201 0 -30 0 0
0.5453 0.0060 0.0202 0 -30 0 0
0.5474 0.0067 0.0222 0 -30 0 0
0.5579 0.0073 0.0223 0 -30 0 0
0.5579 0.0073 0.0223 0 -30 0 0
0.5621 0.0075 0.0242 0 -30 0 0
0.5579 0.0071 0.0243 0 -30 0 0
0.5663 0.0066 0.0266 0 -30 0 0
0.5663 0.0066 0.0266 0 -30 0 0
0.5642 0.0064 0.0275 0 -30 0 0
0.5663 0.0058 0.0258 0 -30 0 0
0.5621 0.0060 0.0257 0 -30 0 0
0.5811 0.0064 0.0287 0 -30 0 0
0.5832 0.0058 0.0284 0 -30 0 0
0.5832 0.0058 0.0284 0 -30 0 0
0.5937 0.0055 0.0295 0 -30 0 0
0.5726 0.0049 0.0292 0 -30 0 0
0.5705 0.0050 0.0314 0 -30 0 0
0.5705 0.0050 0.0314 0 -30 0 0
0.5663 0.0053 0.0313 0 -30 0 0
0.5516 0.0058 0.0315 0 -30 0 0
0.5579 0.0060 0.0311 0 -30 0 0
0.5516 0.0063 0.0307 0 -30 0 0
0.5579 0.0059 0.0298 0 -30 0 0
0.5579 0.0059 0.0298 0 -30 0 0
0.5411 0.0052 0.0293 0 0 0 0
0.5705 0.0054 0.0300 30 0 0 0
0.5558 0.0060 0.0319 30 0 0 0
0.5621 0.0055 0.0332 30 0 0 0
0.5621 0.0055 0.0332 30 0 0 0
0.5663 0.0056 0.0327 30 0 0 0
0.5579 0.0060 0.0332 30 0 0 0
0.5600 0.0064 0.0330 30 0 0 0
0.5600 0.0064 0.0330 30 0 0 0
0.5621 0.0062 0.0345 30 0 0 0
0.5705 0.0064 0.0326 30 0 0 0
0.5747 0.0064 0.0323 30 0 0 0
0.5684 0.0064 0.0317 30 0 0 0
0.5579 0.0064 0.0313 30 0 0 0
0.5768 0.0066 0.0295 30 0 0 0
0.5726 0.0066 0.0291 30 0 0 0
0.5726 0.0064 0.0293 30 0 0 0
0.5726 0.0064 0.0293 30 0 0 0
0.5768 0.0064 0.0287 30 0 0 0
0.5705 0.0064 0.0279 30 0 0 0
0.5411 0.0062 0.0267 30 0 0 0
0.5474 0.0060 0.0275 30 0 0 0
0.5474 0.0060 0.0275 30 0 0 0
0.5368 0.0054 0.0270 30 0 0 0
0.5516 0.0054 0.0269 30 0 0 0
0.5663 0.0057 0.0270 30 0 0 0
0.5663 0.0057 0.0270 30 0 0 0
0.5368 0.0059 0.0278 30 0 0 0
0.5368 0.0065 0.0266 30 0 0 0
0.5516 0.0066 0.0264 30 0 0 0
0.5537 0.0071 0.0251 30 0 0 0
0.5726 0.0071 0.0248 30 0 0 0
0.5705 0.0067 0.0230 30 0 0 0
0.5705 0.0067 0.0230 30 0 0 0
0.5579 0.0063 0.0230 30 0 0 0
0.5600 0.0057 0.0218 30 0 0 0
0.5663 0.0057 0.0216 30 0 0 0
0.5663 0.0057 0.0216 30 0 0 0
0.5874 0.0060 0.0212 30 0 0 0
0.5874 0.0060 0.0212 30 0 0 0
0.5621 0.0060 0.0212 30 0 0 0
0.5474 0.0062 0.0201 30 0 0 0
0.5453 0.0063 0.0198 30 0 0 0
0.5642 0.0069 0.0202 30 0 0 0
0.5726 0.0071 0.0207 30 0 0 0
0.5579 0.0071 0.0198 30 0 0 0
0.5853 0.0071 0.0200 30 0 0 0
0.5853 0.0071 0.0200 30 0 0 0
0.5663 0.0067 0.0193 30 0 0 0
0.5768 0.0067 0.0195 30 0 0 0
0.5768 0.0066 0.0162 30 0 0 0
0.5768 0.0066 0.0162 0 0 0 0
0.5663 0.0071 0.0155 0 30 0 0
0.5979 0.0066 0.0122 0 30 0 0
0.5916 0.0064 0.0106 0 30 0 0
0.5916 0.0064 0.0106 0 30 0 0
0.6126 0.0066 0.0101 0 30 0 0
0.6063 0.0069 0.0082 0 30 0 0
0.6126 0.0071 0.0083 0 30 0 0
0.6042 0.0073 0.0081 0 30 0 0
0.5937 0.0074 0.0082 0 30 0 0
0.5937 0.0074 0.0082 0 30 0 0
0.5937 0.0073 0.0081 0 30 0 0
0.5832 0.0071 0.0083 0 30 0 0
0.5811 0.0072 0.0085 0 30 0 0
0.6000 0.0073 0.0089 0 30 0 0
0.6000 0.0073 0.0089 0 30 0 0
0.6063 0.0070 0.0058 0 30 0 0
0.6105 0.0069 0.0077 0 30 0 0
0.5916 0.0068 0.0080 0 30 0 0
0.5916 0.0068 0.0080 0 30 0 0
0.6168 0.0071 0.0052 0 30 0 0
0.6168 0.0071 0.0052 0 30 0 0
0.6000 0.0080 0.0051 0 30 0 0
0.6000 0.0080 0.0051 0 30 0 0
0.6147 0.0079 0.0021 0 30 0 0
0.6147 0.0079 0.0021 0 30 0 0
0.6358 0.0077 0.0029 0 30 0 0
0.6084 0.0073 0.0057 0 30 0 0
0.6189 0.0073 0.0062 0 30 0 0
0.6189 0.0073 0.0062 0 30 0 0
0.6189 0.0077 0.0053 0 30 0 0
0.6189 0.0077 0.0023 0 30 0 0
0.6189 0.0079 0.0010 0 30 0 0
0.6189 0.0079 0.0010 0 30 0 0
0.6105 0.0079 0.0025 0 30 0 0
0.6147 0.0079 0.0025 0 30 0 0
0.6316 0.0081 0.0034 0 30 0 0
0.6147 0.0087 0.0036 0 30 0 0
0.6126 0.0082 0.0047 0 30 0 0
0.6126 0.0082 0.0047 0 30 0 0
0.6147 0.0074 0.0048 0 30 0 0
0.6295 0.0068 0.0049 0 30 0 0
0.6253 0.0069 0.0055 0 30 0 0
0.6084 0.0074 0.0062 0 30 0 0
0.6147 0.0078 0.0059 0 30 0 0
0.6042 0.0077 0.0067 0 30 0 0
0.6168 0.0074 0.0072 0 30 0 0
0.5811 0.0069 0.0077 0 30 0 0
0.5811 0.0069 0.0077 0 30 0 0
0.5916 0.0066 0.0083 0 30 0 0
0.6253 0.0066 0.0089 0 30 0 0
0.6126 0.0068 0.0088 0 30 0 0
0.6126 0.0068 0.0088 0 30 0 0
0.6189 0.0068 0.0079 0 30 0 0
0.6232 0.0066 0.0082 0 30 0 0
0.6021 0.0070 0.0081 0 30 0 0
0.6168 0.0068 0.0082 0 30 0 0
0.6211 0.0066 0.0099 0 30 0 0
0.6105 0.0065 0.0090 0 30 0 0
0.6105 0.0065 0.0090 0 30 0 0
0.6147 0.0062 0.0092 0 30 0 0
0.6021 0.0065 0.0099 0 30 0 0
0.6189 0.0068 0.0096 0 30 0 0
0.6189 0.0068 0.0096 0 30 0 0
0.6358 0.0072 0.0025 0 30 0 0
0.6400 0.0069 0.0021 0 30 0 0
0.6400 0.0064 0.0004 0 30 0 0
0.6400 0.0064 0.0004 0 30 0 0
0.6147 0.0068 0.0001 0 30 0 0
0.6147 0.0068 0.0001 0 30 0 0
0.6358 0.0075 0.0009 0 30 0 0
0.6379 0.0078 -0.0011 0 30 0 0
0.6379 0.0079 0.0007 0 30 0 0
0.6379 0.0079 0.0007 0 30 0 0
0.6526 0.0079 0.0011 0 30 0 0
0.6484 0.0071 0.0016 0 30 0 0
0.6589 0.0067 0.0020 0 30 0 0
0.6021 0.0066 0.0034 0 30 0 0
0.6021 0.0066 0.0034 0 30 0 0
0.6337 0.0069 0.0045 0 30 0 0
0.6211 0.0070 0.0052 0 30 0 0
0.6211 0.0070 0.0061 0 30 0 0
0.6211 0.0070 0.0061 0 30 0 0
0.6295 0.0067 0.0067 0 30 0 0
0.6421 0.0070 0.0076 0 30 0 0
0.6253 0.0067 0.0090 0 30 0 0
0.6253 0.0065 0.0089 0 30 0 0
0.6400 0.0064 0.0074 0 30 0 0
0.6400 0.0064 0.0074 0 30 0 0
0.6484 0.0059 0.0083 0 30 0 0
0.6232 0.0055 0.0047 0 30 0 0
0.6337 0.0055 0.0064 0 30 0 0
0.6337 0.0055 0.0064 0 30 0 0
0.6295 0.0054 0.0009 0 30 0 0
0.6168 0.0057 0.0006 0 30 0 0
0.6274 0.0059 -0.0053 0 30 0 0
0.6421 0.0062 -0.0074 0 30 0 0
0.6421 0.0062 -0.0074 0 30 0 0
0.6189 0.0065 -0.0129 0 30 0 0
0.6189 0.0068 -0.0175 0 30 0 0
0.6274 0.0063 -0.0162 0 30 0 0
0.6084 0.0060 -0.0190 0 30 0 0
0.6084 0.0062 -0.0183 0 30 0 0
0.6063 0.0062 -0.0183 0 30 0 0
0.6105 0.0066 -0.0239 0 30 0 0
0.6021 0.0069 -0.0253 0 30 0 0
0.5768 0.0066 -0.0273 0 30 0 0
0.5768 0.0066 -0.0273 0 30 0 0
0.6042 0.0058 -0.0285 0 30 0 0
0.6105 0.0054 -0.0302 0 30 0 0
0.6084 0.0051 -0.0279 0 30 0 0
0.6000 0.0051 -0.0273 0 30 0 0
0.6000 0.0051 -0.0273 0 30 0 0
0.6084 0.0055 -0.0254 0 30 0 0
0.6253 0.0066 -0.0257 0 30 0 0
0.6253 0.0066 -0.0257 0 30 0 0
0.5916 0.0068 -0.0242 0 30 0 0
0.5979 0.0060 -0.0287 0 30 0 0
0.5789 0.0054 -0.0270 0 30 0 0
0.5916 0.0056 -0.0268 0 30 0 0
0.5768 0.0061 -0.0246 0 30 0 0
0.5768 0.0061 -0.0246 0 30 0 0
0.5853 0.0066 -0.0260 0 30 0 0
0.6105 0.0067 -0.0252 0 30 0 0
0.5811 0.0064 -0.0239 0 30 0 0
0.6189 0.0062 -0.0208 0 30 0 0
0.6189 0.0062 -0.0212 0 30 0 0
0.6063 0.0062 -0.0212 0 30 0 0
0.5958 0.0069 -0.0198 0 30 0 0
0.6000 0.0072 -0.0187 0 30 0 0
0.5832 0.0075 -0.0177 0 30 0 0
0.6042 0.0068 -0.0175 0 30 0 0
0.6042 0.0068 -0.0174 0 30 0 0
0.5874 0.0066 -0.0167 0 30 0 0
0.6084 0.0065 -0.0173 0 30 0 0
0.5916 0.0067 -0.0158 0 30 0 0
0.5916 0.0066 -0.0121 0 30 0 0
0.5937 0.0066 -0.0121 0 30 0 0
0.6105 0.0066 -0.0104 0 30 0 0
0.5979 0.0068 -0.0108 0 30 0 0
0.5979 0.0068 -0.0108 0 30 0 0
0.6042 0.0066 -0.0112 0 30 0 0
0.6084 0.0064 -0.0104 0 30 0 0
0.5979 0.0062 -0.0093 0 30 0 0
0.6147 0.0059 -0.0085 0 30 0 0
0.6105 0.0063 -0.0071 0 30 0 0
0.6105 0.0063 -0.0071 0 30 0 0
0.6126 0.0069 -0.0055 0 30 0 0
0.6063 0.0070 -0.0049 0 30 0 0
0.6063 0.0070 -0.0049 0 30 0 0
0.6147 0.0066 -0.0040 0 30 0 0
0.6021 0.0060 -0.0036 0 30 0 0
0.6232 0.0060 -0.0025 0 30 0 0
0.6232 0.0060 -0.0025 0 30 0 0
0.6253 0.0067 -0.0022 0 30 0 0
0.6253 0.0067 -0.0022 0 30 0 0
0.5874 0.0070 -0.0015 0 30 0 0
0.5853 0.0066 -0.0003 0 30 0 0
0.5853 0.0062 0.0008 0 30 0 0
0.5979 0.0062 0.0008 0 30 0 0
0.5916 0.0062 0.0121 0 30 0 0
0.6021 0.0064 0.0126 0 30 0 0
0.5853 0.0064 0.0126 0 30 0 0
0.5853 0.0064 0.0126 0 30 0 0
0.5789 0.0055 0.0095 0 30 0 0
0.6042 0.0049 0.0060 0 0 0 0
0.5853 0.0047 0.0026 0 30 0 0
0.5916 0.0058 -0.0003 0 30 0 0
0.5747 0.0059 -0.0016 0 30 0 0
0.6105 0.0060 -0.0042 0 30 0 0
0.6105 0.0059 -0.0035 0 30 0 0
0.6084 0.0058 -0.0036 0 30 0 0
0.6084 0.0058 -0.0036 0 30 0 0
0.6126 0.0059 -0.0040 0 0 0 0
0.6147 0.0057 -0.0024 0 30 0 0
0.6147 0.0056 -0.0046 0 30 0 0
0.6147 0.0056 -0.0046 0 30 0 0
0.5832 0.0055 -0.0047 0 30 0 0
0.6000 0.0052 -0.0036 0 0 0 0
0.6189 0.0050 -0.0015 0 30 0 0
0.5789 0.0061 -0.0020 0 30 0 0
0.5789 0.0061 -0.0020 0 30 0 0
0.5916 0.0056 -0.0054 0 30 0 0
0.5916 0.0051 -0.0081 0 0 0 0
0.5874 0.0062 0.0076 0 30 0 0
0.5958 0.0065 0.0066 0 30 0 0
0.5958 0.0059 0.0129 0 30 0 0
0.6021 0.0056 0.0129 0 30 0 0
0.6021 0.0056 0.0129 0 0 0 0
0.5811 0.0073 0.0121 0 30 0 0
0.5874 0.0071 0.0118 0 30 0 0
0.5895 0.0066 0.0105 0 0 0 0
0.6042 0.0067 0.0104 0 30 0 0
0.6126 0.0067 0.0070 0 30 0 0
0.5789 0.0070 0.0054 0 30 0 0
0.6084 0.0071 0.0047 0 0 0 0
0.6084 0.0062 0.0050 0 30 0 0
0.6126 0.0062 0.0032 0 30 0 0
0.6084 0.0061 0.0036 0 30 0 0
0.6105 0.0061 0.0053 0 30 0 0
0.6021 0.0062 0.0039 0 30 0 0
0.6253 0.0060 0.0028 0 30 0 0
0.5979 0.0062 0.0022 0 0 0 0
0.5979 0.0058 -0.0191 0 0 0 30
0.6000 0.0072 -0.0229 0 0 0 30
0.5937 0.0054 -0.0253 0 0 0 30
0.6021 0.0058 -0.0250 0 0 0 0
0.5895 0.0061 -0.0219 0 0 0 30
0.6000 0.0062 -0.0197 0 0 0 30
0.6295 0.0058 -0.0203 0 0 0 30
0.6189 0.0062 -0.0199 0 0 0 0
0.6084 0.0045 -0.0119 0 0 0 30
0.6337 0.0053 -0.0082 0 0 0 0
0.6189 0.0067 -0.0070 0 0 0 30
0.6189 0.0053 -0.0053 0 0 0 30
0.6126 0.0048 -0.0030 0 0 0 0
0.6274 0.0062 0.0037 0 0 0 30
0.6021 0.0077 0.0064 0 0 0 0
0.5916 0.0073 0.0109 0 0 0 30
0.6042 0.0073 0.0131 0 0 0 30
0.6126 0.0079 0.0138 0 0 0 0
0.6126 0.0060 0.0175 0 30 0 0
0.5895 0.0067 0.0149 0 30 0 0
0.5937 0.0063 0.0117 0 30 0 0
0.5874 0.0063 0.0117 0 30 0 0
0.6063 0.0064 0.0081 0 30 0 0
0.6063 0.0064 0.0081 0 30 0 0
0.5768 0.0064 0.0086 0 30 0 0
0.5916 0.0067 0.0085 0 30 0 0
0.5937 0.0070 0.0086 0 30 0 0
0.6000 0.0071 0.0090 0 30 0 0
0.5958 0.0072 0.0092 0 30 0 0
0.5958 0.0072 0.0092 0 30 0 0
0.5916 0.0066 0.0095 0 30 0 0
0.6084 0.0065 0.0099 0 30 0 0
0.6147 0.0062 0.0110 0 30 0 0
0.6316 0.0061 0.0119 0 30 0 0
0.6316 0.0061 0.0119 0 30 0 0
0.6021 0.0057 0.0125 0 30 0 0
0.5979 0.0054 0.0125 0 0 0 0
0.6147 0.0055 0.0124 0 30 0 0
0.5979 0.0066 0.0130 0 30 0 0
0.6274 0.0068 0.0123 0 30 0 0
0.6274 0.0068 0.0132 0 30 0 0
0.6084 0.0068 0.0132 0 30 0 0
0.6105 0.0067 0.0130 0 30 0 0
0.6063 0.0066 0.0131 0 30 0 0
0.6042 0.0067 0.0134 0 30 0 0
0.6042 0.0067 0.0134 0 30 0 0
0.6084 0.0068 0.0133 0 30 0 0
0.5895 0.0064 0.0131 0 30 0 0
0.5895 0.0061 0.0114 0 30 0 0
0.5979 0.0058 0.0093 0 30 0 0
0.5979 0.0054 0.0089 0 30 0 0
0.6021 0.0055 0.0100 0 30 0 0
0.6021 0.0055 0.0100 0 30 0 0
0.5874 0.0062 0.0120 0 30 0 0
0.6126 0.0070 0.0106 0 30 0 0
0.6147 0.0076 0.0090 0 30 0 0
0.5979 0.0073 0.0065 0 30 0 0
0.5979 0.0073 0.0065 0 30 0 0
0.6189 0.0068 0.0071 0 30 0 0
0.6105 0.0069 0.0067 0 30 0 0
0.6105 0.0069 0.0067 0 30 0 0
0.5979 0.0069 0.0056 0 30 0 0
0.5916 0.0070 0.0039 0 30 0 0
0.6105 0.0064 0.0033 0 30 0 0
0.6084 0.0058 0.0050 0 30 0 0
0.6084 0.0058 0.0050 0 30 0 0
0.6168 0.0054 0.0057 0 30 0 0
0.6253 0.0054 0.0066 0 30 0 0
0.6274 0.0052 0.0065 0 30 0 0
0.6211 0.0054 0.0061 0 30 0 0
0.6211 0.0054 0.0061 0 30 0 0
0.6084 0.0051 0.0072 0 30 0 0
0.6042 0.0051 0.0089 0 30 0 0
0.6063 0.0055 0.0082 0 30 0 0
0.6147 0.0058 0.0084 0 30 0 0
0.6084 0.0059 0.0123 0 30 0 0
0.6084 0.0059 0.0123 0 30 0 0
0.6063 0.0062 0.0069 0 30 0 0
0.6021 0.0063 0.0058 0 30 0 0
0.6021 0.0063 0.0058 0 30 0 0
0.5874 0.0068 0.0053 0 30 0 0
0.5874 0.0068 -0.0020 0 30 0 0
0.5916 0.0068 -0.0020 0 30 0 0
0.5895 0.0066 -0.0075 0 30 0 0
0.6000 0.0059 -0.0078 0 30 0 0
0.5853 0.0054 -0.0081 0 30 0 0
0.5853 0.0054 -0.0081 0 30 0 0
0.5895 0.0052 -0.0183 0 30 0 0
0.5768 0.0055 -0.0217 0 30 0 0
0.6084 0.0058 -0.0216 0 30 0 0
0.6084 0.0061 -0.0232 0 30 0 0
0.6084 0.0062 -0.0213 0 30 0 0
0.6084 0.0062 -0.0213 0 30 0 0
0.6105 0.0064 -0.0240 0 30 0 0
0.5642 0.0070 -0.0221 0 30 0 0
0.6042 0.0068 -0.0237 0 30 0 0
0.6000 0.0068 -0.0221 0 30 0 0
0.6000 0.0068 -0.0221 0 30 0 0
0.5895 0.0071 -0.0221 0 30 0 0
0.6063 0.0073 -0.0205 0 30 0 0
0.5916 0.0077 -0.0218 0 30 0 0
0.5958 0.0077 -0.0193 0 30 0 0
0.6021 0.0076 -0.0166 0 30 0 0
0.6021 0.0076 -0.0166 0 30 0 0
0.5811 0.0075 -0.0156 0 30 0 0
0.5874 0.0079 -0.0158 0 30 0 0
0.6063 0.0082 -0.0151 0 30 0 0
0.5832 0.0086 -0.0141 0 30 0 0
0.5832 0.0086 -0.0141 0 30 0 0
0.5979 0.0086 -0.0128 0 30 0 0
0.6042 0.0083 -0.0113 0 30 0 0
0.5621 0.0080 -0.0086 0 30 0 0
0.5621 0.0080 -0.0086 0 30 0 0
0.5789 0.0073 -0.0072 0 30 0 0
0.5705 0.0071 -0.0053 0 30 0 0
0.5726 0.0074 -0.0040 0 30 0 0
0.5726 0.0074 -0.0040 0 30 0 0
0.5874 0.0074 -0.0020 0 30 0 0
0.5747 0.0072 -0.0016 0 30 0 0
0.5811 0.0070 -0.0013 0 30 0 0
0.5958 0.0072 -0.0004 0 30 0 0
0.6126 0.0073 0.0003 0 30 0 0
0.5789 0.0073 0.0008 0 30 0 0
0.5916 0.0074 0.0021 0 30 0 0
0.5853 0.0071 0.0034 0 30 0 0
0.5726 0.0071 0.0039 0 30 0 0
0.6084 0.0070 0.0046 0 30 0 0
0.5789 0.0069 0.0052 0 30 0 0
0.5789 0.0069 0.0052 0 30 0 0
0.5853 0.0071 0.0053 0 30 0 0
0.5853 0.0070 0.0067 0 30 0 0
0.5979 0.0068 0.0068 0 30 0 0
0.5979 0.0068 0.0068 0 30 0 0
0.6168 0.0062 0.0078 0 30 0 0
0.5895 0.0064 0.0102 0 30 0 0
0.5853 0.0062 0.0112 0 30 0 0
0.5789 0.0062 0.0133 0 30 0 0
0.5789 0.0062 0.0133 0 30 0 0
0.6042 0.0058 0.0153 0 30 0 0
0.6042 0.0058 0.0153 0 30 0 0
0.6105 0.0058 0.0134 0 30 0 0
0.5853 0.0062 0.0141 0 30 0 0
0.5726 0.0065 0.0134 0 30 0 0
0.5726 0.0065 0.0134 0 30 0 0
0.5853 0.0064 0.0138 0 30 0 0
0.5895 0.0060 0.0139 0 30 0 0
0.5958 0.0052 0.0143 0 30 0 0
0.5895 0.0051 0.0168 0 30 0 0
0.5895 0.0051 0.0168 0 30 0 0
0.5853 0.0053 0.0185 0 30 0 0
0.5853 0.0053 0.0185 0 30 0 0
0.5853 0.0055 0.0191 0 30 0 0
0.5811 0.0055 0.0203 0 30 0 0
0.5811 0.0055 0.0203 0 30 0 0
0.5642 0.0058 0.0194 0 30 0 0
0.5747 0.0056 0.0186 0 30 0 0
0.5621 0.0055 0.0189 0 30 0 0
0.5621 0.0055 0.0189 0 30 0 0
0.5726 0.0051 0.0201 0 30 0 0
0.5747 0.0054 0.0200 0 30 0 0
0.5600 0.0054 0.0225 0 30 0 0
0.5789 0.0054 0.0228 0 30 0 0
0.5663 0.0052 0.0223 0 30 0 0
0.5726 0.0052 0.0223 0 30 0 0
0.5726 0.0049 0.0237 0 30 0 0
0.5726 0.0054 0.0242 0 30 0 0
0.5642 0.0053 0.0253 0 30 0 0
0.5747 0.0049 0.0254 0 30 0 0
0.5747 0.0049 0.0254 0 30 0 0
0.5874 0.0053 0.0249 0 30 0 0
0.5684 0.0060 0.0248 0 30 0 0
0.5663 0.0062 0.0276 0 30 0 0
0.5537 0.0064 0.0271 0 30 0 0
0.5537 0.0064 0.0271 0 30 0 0
0.5621 0.0065 0.0292 0 30 0 0
0.5916 0.0064 0.0294 0 30 0 0
0.5747 0.0064 0.0271 0 30 0 0
0.5811 0.0060 0.0264 0 30 0 0
0.5811 0.0060 0.0264 0 30 0 0
0.5874 0.0061 0.0248 0 30 0 0
0.5768 0.0056 0.0249 0 30 0 0
0.5811 0.0058 0.0244 0 30 0 0
0.5811 0.0061 0.0239 0 30 0 0
0.5958 0.0061 0.0231 0 30 0 0
0.5958 0.0061 0.0231 0 30 0 0
0.5937 0.0070 0.0232 0 30 0 0
0.6168 0.0072 0.0228 0 30 0 0
0.6189 0.0071 0.0224 0 30 0 0
0.6189 0.0071 0.0224 0 30 0 0
0.6126 0.0072 0.0222 0 30 0 0
0.5979 0.0072 0.0227 0 30 0 0
0.6189 0.0072 0.0231 0 30 0 0
0.5958 0.0075 0.0225 0 30 0 0
0.5874 0.0075 0.0229 0 30 0 0
0.5874 0.0075 0.0229 0 30 0 0
0.5874 0.0078 0.0226 0 30 0 0
0.5979 0.0078 0.0229 0 30 0 0
0.5747 0.0072 0.0245 0 30 0 0
0.6000 0.0069 0.0246 0 30 0 0
0.5937 0.0064 0.0262 0 30 0 0
0.5979 0.0060 0.0275 0 30 0 0
0.5832 0.0060 0.0266 0 30 0 0
0.5789 0.0059 0.0270 0 30 0 0
0.5811 0.0060 0.0311 0 30 0 0
0.5811 0.0060 0.0311 0 30 0 0
0.5937 0.0063 0.0316 0 30 0 0
0.5832 0.0064 0.0330 0 30 0 0
0.5853 0.0060 0.0338 0 30 0 0
0.5937 0.0057 0.0356 0 30 0 0
0.5937 0.0057 0.0356 0 30 0 0
0.5853 0.0054 0.0345 0 0 0 0
0.5979 0.0055 0.0420 0 0 0 -30
0.5916 0.0067 0.0405 0 0 0 -30
0.6147 0.0066 0.0401 0 0 0 0
0.6042 0.0057 0.0386 0 0 0 -30
0.5937 0.0058 0.0378 0 0 0 -30
0.5789 0.0062 0.0375 0 0 0 -30
0.6000 0.0062 0.0363 0 0 0 0
0.6253 0.0062 0.0363 0 0 0 -30
0.6147 0.0065 0.0312 0 0 0 -30
0.6147 0.0065 0.0312 0 0 0 -30
0.6147 0.0065 0.0324 0 0 0 0
0.6147 0.0062 0.0314 0 30 0 0
0.6295 0.0066 0.0277 0 30 0 0
0.6295 0.0066 0.0277 0 30 0 0
0.6295 0.0066 0.0277 0 30 0 0
0.6147 0.0058 0.0243 0 30 0 0
0.6337 0.0061 0.0237 0 30 0 0
0.6379 0.0066 0.0237 0 30 0 0
0.6568 0.0071 0.0231 0 30 0 0
0.6316 0.0071 0.0229 0 30 0 0
0.6316 0.0071 0.0229 0 30 0 0
0.6337 0.0069 0.0227 0 30 0 0
0.6316 0.0066 0.0224 0 30 0 0
0.6337 0.0066 0.0213 0 30 0 0
0.6337 0.0066 0.0213 0 30 0 0
0.6463 0.0072 0.0200 0 30 0 0
0.6379 0.0079 0.0191 0 30 0 0
0.6505 0.0080 0.0191 0 30 0 0
0.6232 0.0077 0.0194 0 30 0 0
0.6526 0.0075 0.0189 0 30 0 0
0.6526 0.0073 0.0184 0 30 0 0
0.6463 0.0073 0.0184 0 30 0 0
0.6400 0.0069 0.0195 0 30 0 0
0.6358 0.0066 0.0191 0 30 0 0
0.6463 0.0068 0.0193 0 30 0 0
0.6463 0.0068 0.0193 0 30 0 0
0.6442 0.0073 0.0180 0 30 0 0
0.6274 0.0077 0.0176 0 30 0 0
0.6000 0.0079 0.0168 0 30 0 0
0.6000 0.0079 0.0168 0 30 0 0
0.6232 0.0079 0.0171 0 30 0 0
0.6232 0.0079 0.0171 0 30 0 0
0.6337 0.0078 0.0168 0 30 0 0
0.6337 0.0078 0.0168 0 30 0 0
0.6400 0.0075 0.0173 0 30 0 0
0.6316 0.0077 0.0183 0 30 0 0
0.6505 0.0080 0.0173 0 30 0 0
0.6716 0.0076 0.0160 0 30 0 0
0.6716 0.0076 0.0160 0 30 0 0
0.6400 0.0068 0.0180 0 30 0 0
0.6526 0.0068 0.0180 0 30 0 0
0.6526 0.0072 0.0167 0 30 0 0
0.6442 0.0067 0.0173 0 30 0 0
0.6274 0.0065 0.0193 0 30 0 0
0.6274 0.0064 0.0193 0 30 0 0
0.6274 0.0064 0.0193 0 30 0 0
0.6611 0.0069 0.0238 0 30 0 0
0.6337 0.0067 0.0231 0 30 0 0
0.6337 0.0067 0.0231 0 30 0 0
0.6505 0.0069 0.0213 0 30 0 0
0.6505 0.0069 0.0213 0 30 0 0
0.6442 0.0066 0.0215 0 30 0 0
0.6442 0.0064 0.0225 0 30 0 0
0.6232 0.0064 0.0225 0 30 0 0
0.6463 0.0058 0.0219 0 30 0 0
0.6589 0.0056 0.0224 0 30 0 0
0.6589 0.0058 0.0218 0 30 0 0
0.6589 0.0058 0.0218 0 30 0 0
0.6232 0.0062 0.0198 0 30 0 0
0.6232 0.0062 0.0198 0 30 0 0
0.6484 0.0058 0.0145 0 30 0 0
0.6295 0.0050 0.0124 0 30 0 0
0.6358 0.0050 0.0124 0 30 0 0
0.6632 0.0049 0.0118 0 30 0 0
0.6632 0.0049 0.0118 0 30 0 0
0.6568 0.0052 0.0066 0 30 0 0
0.6568 0.0052 0.0066 0 30 0 0
0.6463 0.0053 0.0069 0 30 0 0
0.6316 0.0055 0.0032 0 30 0 0
0.6316 0.0055 0.0032 0 30 0 0
0.6189 0.0054 0.0018 0 30 0 0
0.6211 0.0055 -0.0017 0 30 0 0
0.6316 0.0052 -0.0009 0 30 0 0
0.6189 0.0051 -0.0032 0 30 0 0
0.6042 0.0047 -0.0030 0 30 0 0
0.6084 0.0048 -0.0026 0 30 0 0
0.6211 0.0049 -0.0014 0 30 0 0
0.6421 0.0044 -0.0008 0 30 0 0
0.6295 0.0038 -0.0005 0 30 0 0
0.6295 0.0038 -0.0005 0 30 0 0
0.6463 0.0032 0.0000 0 30 0 0
0.6337 0.0034 -0.0002 0 30 0 0
0.6295 0.0038 -0.0001 0 30 0 0
0.6274 0.0038 -0.0000 0 30 0 0
0.6232 0.0041 0.0012 0 30 0 0
0.6232 0.0041 0.0012 0 30 0 0
0.6379 0.0044 0.0026 0 30 0 0
0.6253 0.0046 0.0035 0 30 0 0
0.6253 0.0044 0.0029 0 30 0 0
0.6253 0.0044 0.0029 0 30 0 0
0.6126 0.0039 0.0038 0 0 0 0
0.6189 0.0044 0.0091 30 0 0 0
0.6211 0.0047 0.0046 30 0 0 0
0.6084 0.0049 0.0049 30 0 0 0
0.6147 0.0049 0.0070 30 0 0 0
0.6147 0.0049 0.0070 30 0 0 0
0.6189 0.0058 0.0079 30 0 0 0
0.6189 0.0058 0.0079 0 0 0 0
0.6021 0.0052 0.0089 30 0 0 0
0.6253 0.0059 0.0094 30 0 0 0
0.6253 0.0059 0.0094 30 0 0 0
0.6211 0.0059 0.0096 30 0 0 0
0.6105 0.0058 0.0094 30 0 0 0
0.5979 0.0055 0.0090 30 0 0 0
0.5916 0.0056 0.0094 0 0 0 0
0.6147 0.0064 0.0110 0 30 0 0
0.6084 0.0065 0.0119 0 30 0 0
0.5895 0.0065 0.0119 0 30 0 0
0.5958 0.0063 0.0105 0 30 0 0
0.5958 0.0063 0.0105 0 30 0 0
0.5958 0.0060 0.0111 0 30 0 0
0.6021 0.0062 0.0083 0 30 0 0
0.6021 0.0062 0.0083 0 30 0 0
0.5979 0.0059 0.0075 0 30 0 0
0.6105 0.0056 0.0079 0 30 0 0
0.6063 0.0050 0.0088 0 30 0 0
0.6084 0.0051 0.0095 0 30 0 0
0.6084 0.0051 0.0095 0 30 0 0
0.6042 0.0053 0.0097 0 30 0 0
0.6105 0.0060 0.0119 0 30 0 0
0.5916 0.0064 0.0127 0 30 0 0
0.5853 0.0064 0.0107 0 30 0 0
0.5895 0.0061 0.0112 0 30 0 0
0.6189 0.0052 0.0106 0 30 0 0
0.6189 0.0052 0.0106 0 30 0 0
0.6105 0.0054 0.0111 0 30 0 0
0.6168 0.0052 0.0113 0 30 0 0
0.6021 0.0056 0.0113 0 30 0 0
0.6021 0.0057 0.0120 0 30 0 0
0.6021 0.0057 0.0120 0 30 0 0
0.6211 0.0055 0.0141 0 30 0 0
0.5979 0.0057 0.0149 0 30 0 0
0.6168 0.0053 0.0174 30 30 0 0
0.6168 0.0053 0.0174 30 30 0 0
0.6189 0.0053 0.0165 30 30 0 0
0.6232 0.0053 0.0144 30 30 0 0
0.6063 0.0051 0.0140 30 30 0 0
0.6063 0.0051 0.0140 30 30 0 0
0.6021 0.0047 0.0143 30 30 0 0
0.6211 0.0047 0.0143 30 30 0 0
0.5958 0.0048 0.0127 0 30 0 0
0.6147 0.0047 0.0109 0 30 0 0
0.6253 0.0049 0.0107 0 30 0 0
0.6253 0.0049 0.0107 0 30 0 0
0.6126 0.0047 0.0091 0 30 0 0
0.6063 0.0044 0.0074 30 30 0 0
0.6211 0.0047 0.0087 30 30 0 0
0.6211 0.0047 0.0087 30 30 0 0
0.6084 0.0054 0.0083 30 30 0 0
0.6000 0.0055 0.0091 30 30 0 0
0.6379 0.0053 0.0098 30 30 0 0
0.6379 0.0051 0.0127 30 30 0 0
0.6274 0.0051 0.0127 0 30 0 0
0.6211 0.0047 0.0128 0 30 0 0
0.6253 0.0043 0.0121 30 30 0 0
0.6253 0.0047 0.0101 30 30 0 0
0.6274 0.0049 0.0110 30 30 0 0
0.6274 0.0049 0.0110 30 30 0 0
0.6232 0.0054 0.0066 30 30 0 0
0.6168 0.0062 0.0075 30 30 0 0
0.6274 0.0062 0.0048 30 30 0 0
0.6274 0.0062 0.0048 0 30 0 0
0.6358 0.0055 0.0045 0 30 0 0
0.6211 0.0051 -0.0001 0 30 0 0
0.6168 0.0052 -0.0008 0 30 0 0
0.6274 0.0051 -0.0003 0 30 0 0
0.6274 0.0051 -0.0003 0 30 0 0
0.5937 0.0052 0.0016 0 30 0 0
0.6000 0.0052 0.0029 0 30 0 0
0.6168 0.0051 0.0012 0 30 0 0
0.6063 0.0046 0.0021 0 30 0 0
0.6189 0.0045 0.0036 0 30 0 0
0.6105 0.0048 0.0040 0 30 0 0
0.6105 0.0048 0.0040 0 30 0 0
0.6232 0.0057 0.0034 0 30 0 0
0.6232 0.0057 0.0034 0 30 0 0
0.6400 0.0064 0.0058 0 30 0 0
0.6105 0.0068 0.0079 0 30 0 0
0.6189 0.0068 0.0079 0 30 0 0
0.6316 0.0062 0.0083 0 30 0 0
0.6105 0.0062 0.0073 0 30 0 0
0.6211 0.0060 0.0077 0 30 0 0
0.6253 0.0064 0.0072 0 30 0 0
0.6253 0.0064 0.0072 0 30 0 0
0.5916 0.0067 0.0058 0 30 0 0
0.5979 0.0072 0.0045 0 30 0 0
0.5853 0.0072 0.0029 0 30 0 0
0.5853 0.0072 0.0029 0 30 0 0
0.6274 0.0075 0.0026 0 30 0 0
0.6168 0.0073 0.0028 0 30 0 0
0.6000 0.0075 0.0038 0 30 0 0
0.6000 0.0077 0.0037 0 30 0 0
0.5979 0.0081 0.0020 0 30 0 0
0.5979 0.0081 0.0020 0 30 0 0
0.6063 0.0079 0.0016 0 30 0 0
0.6168 0.0075 0.0039 0 30 0 0
0.6189 0.0078 0.0021 -30 30 0 0
0.6126 0.0079 0.0019 -30 30 0 0
0.6126 0.0079 0.0019 -30 30 0 0
0.6084 0.0081 0.0017 -30 30 0 0
0.6000 0.0081 0.0007 -30 30 0 0
0.6021 0.0078 -0.0048 -30 30 0 0
0.6021 0.0078 -0.0048 -30 30 0 0
0.6126 0.0073 -0.0061 -30 30 0 0
0.6232 0.0071 -0.0068 -30 30 0 0
0.6253 0.0068 -0.0123 -30 30 0 0
0.6316 0.0067 -0.0124 -30 30 0 0
0.6463 0.0064 -0.0122 -30 30 0 0
0.6400 0.0060 -0.0121 -30 30 0 0
0.6400 0.0060 -0.0121 -30 30 0 0
0.6421 0.0060 -0.0094 -30 30 0 0
0.6253 0.0064 -0.0105 -30 30 0 0
0.6168 0.0070 -0.0117 -30 30 0 0
0.6168 0.0070 -0.0117 -30 30 0 0
0.6232 0.0072 -0.0100 -30 30 0 0
0.6232 0.0072 -0.0100 -30 30 0 0
0.6000 0.0066 -0.0069 -30 30 0 0
0.6000 0.0066 -0.0069 -30 30 0 0
0.6000 0.0065 -0.0056 -30 30 0 0
0.6000 0.0065 -0.0056 -30 30 0 0
0.6084 0.0067 -0.0046 0 30 0 0
0.6021 0.0067 -0.0036 0 30 0 0
0.6063 0.0068 -0.0049 0 30 0 0
0.6063 0.0068 -0.0027 0 30 0 0
0.6021 0.0068 -0.0027 0 30 0 0
0.5789 0.0070 -0.0023 0 30 0 0
0.5958 0.0066 -0.0032 0 30 0 0
0.5747 0.0067 -0.0037 0 30 0 0
0.5747 0.0067 -0.0037 0 30 0 0
0.5937 0.0068 -0.0040 -30 30 0 0
0.5937 0.0066 -0.0065 -30 30 0 0
0.5895 0.0068 -0.0057 -30 30 0 0
0.5874 0.0066 -0.0026 -30 30 0 0
0.5853 0.0061 -0.0007 -30 30 0 0
0.5853 0.0061 -0.0007 -30 30 0 0
0.5768 0.0060 0.0011 -30 30 0 0
0.5726 0.0058 0.0030 -30 30 0 0
0.5811 0.0061 0.0038 -30 30 0 0
0.5747 0.0064 0.0009 -30 30 0 0
0.6021 0.0066 0.0018 -30 30 0 0
0.5937 0.0066 0.0020 -30 30 0 0
0.5853 0.0060 0.0005 -30 30 0 0
0.6000 0.0055 -0.0022 -30 30 0 0
0.5705 0.0048 -0.0031 -30 30 0 0
0.5705 0.0048 -0.0031 -30 30 0 0
0.5916 0.0035 -0.0081 -30 0 0 0
0.5916 0.0035 -0.0081 -30 0 0 0
0.5453 0.0040 -0.0068 -30 0 0 0
0.5726 0.0047 -0.0058 -30 0 0 0
0.5726 0.0047 -0.0058 -30 0 0 0
0.5453 0.0051 -0.0055 -30 0 0 0
0.5621 0.0049 0.4024 -30 0 0 0
0.5789 0.0047 0.3991 -30 0 0 0
0.5600 0.0042 0.3978 -30 0 0 0
0.5684 0.0040 0.3966 -30 0 0 0
0.5684 0.0040 0.3966 -30 0 0 0
0.5516 0.0039 0.3996 -30 0 0 0
0.5705 0.0040 0.4007 -30 0 0 0
0.5768 0.0045 0.3999 -30 0 0 0
0.5768 0.0045 0.3999 -30 0 0 0
0.5895 0.0049 0.4019 -30 0 0 0
0.5726 0.0049 0.4044 -30 0 0 0
0.5811 0.0052 0.4047 -30 0 0 0
0.5621 0.0055 0.4038 -30 0 0 0
0.5621 0.0055 0.4038 -30 0 0 0
0.5600 0.0060 0.4053 -30 0 0 0
0.5600 0.0060 0.4053 -30 0 0 0
0.5811 0.0060 0.4006 -30 0 0 0
0.5684 0.0061 -0.0385 -30 0 0 0
0.5558 0.0058 -0.0420 -30 0 0 0
0.5558 0.0058 -0.0420 -30 0 0 0
0.5516 0.0052 -0.0421 -30 0 0 0
0.5368 0.0050 -0.0395 -30 0 0 0
0.5516 0.0051 -0.0409 -30 0 0 0
0.5579 0.0052 -0.0392 -30 0 0 0
0.5579 0.0052 -0.0392 -30 0 0 0
0.5768 0.0058 -0.0353 -30 0 0 0
0.5705 0.0062 -0.0343 -30 0 0 0
0.5642 0.0066 -0.0340 -30 0 0 0
0.5726 0.0060 -0.0344 -30 0 0 0
0.5600 0.0060 -0.0344 -30 0 0 0
0.5811 0.0054 -0.0337 -30 0 0 0
0.5389 0.0047 -0.0375 -30 0 0 0
0.5516 0.0047 -0.0402 -30 0 0 0
0.5537 0.0047 -0.0422 -30 0 0 0
0.5474 0.0047 -0.0488 -30 0 0 0
0.5474 0.0047 -0.0488 -30 0 0 0
0.5242 0.0043 -0.0488 -30 0 0 0
0.5663 0.0041 -0.0497 -30 0 0 0
0.5326 0.0042 -0.0497 -30 0 0 0
0.5326 0.0042 -0.0497 -30 0 0 0
0.5242 0.0040 -0.0483 -30 0 0 0
0.5453 0.0041 -0.0509 -30 0 0 0
0.5537 0.0041 -0.0490 -30 0 0 0
0.5432 0.0042 -0.0502 -30 0 0 0
0.5432 0.0042 -0.0502 -30 0 0 0
0.5411 0.0044 -0.0496 -30 0 0 0
0.5411 0.0051 -0.0484 -30 0 0 0
0.5516 0.0049 -0.0479 0 0 0 0
0.5263 0.0064 -0.0484 -30 0 0 0
0.5368 0.0064 -0.0596 -30 0 0 0
0.5347 0.0058 -0.0665 -30 0 0 0
0.5242 0.0060 -0.0653 -30 0 0 0
0.5242 0.0060 -0.0653 -30 0 0 0
0.5221 0.0064 -0.0643 -30 0 0 0
0.5179 0.0065 -0.0649 -30 0 0 0
0.5263 0.0064 -0.0655 -30 0 0 0
0.5221 0.0062 -0.0625 -30 0 0 0
0.5221 0.0062 -0.0625 -30 0 0 0
0.5158 0.0057 -0.0626 -30 0 0 0
0.4905 0.0052 -0.0658 -30 0 0 0
0.5074 0.0052 -0.0682 -30 0 0 0
0.5074 0.0052 -0.0682 -30 0 0 0
0.5053 0.0052 -0.0689 -30 0 0 0
0.5053 0.0052 -0.0689 -30 0 0 0
0.5137 0.0058 -0.0693 -30 0 0 0
0.5011 0.0062 -0.0686 -30 0 0 0
0.5011 0.0062 -0.0686 -30 0 0 0
0.5200 0.0062 -0.0691 -30 0 0 0
0.5137 0.0059 -0.0671 0 0 0 0
0.5179 0.0054 -0.0609 -30 0 0 0
0.4884 0.0051 -0.0626 -30 0 0 0
0.5074 0.0060 -0.0613 -30 0 0 0
0.4989 0.0053 -0.0588 -30 0 0 0
0.5032 0.0051 -0.0559 -30 0 0 0
0.4968 0.0057 -0.0550 -30 0 0 0
0.4716 0.0057 -0.0549 -30 0 0 0
0.4716 0.0057 -0.0549 0 0 0 0
0.4779 0.0061 -0.0460 0 0 0 30
0.4821 0.0063 -0.0439 0 0 0 0
0.4926 0.0066 -0.0423 0 0 0 30
0.4863 0.0062 -0.0406 0 0 0 30
0.4800 0.0060 -0.0378 0 0 0 0
0.4421 0.0051 -0.0373 0 0 0 30
0.4695 0.0047 -0.0345 0 0 0 0
0.4737 0.0048 -0.0329 0 0 0 30
0.4632 0.0051 -0.0306 0 0 0 30
0.4632 0.0055 -0.0300 0 0 0 30
0.4358 0.0056 -0.0287 0 0 0 0
0.4568 0.0058 -0.0271 0 0 0 30
0.4611 0.0061 -0.0261 0 0 0 30
0.4400 0.0060 -0.0223 0 0 0 30
0.4653 0.0063 -0.0205 0 0 0 0
0.4484 0.0066 -0.0215 0 0 0 30
0.4316 0.0062 -0.0161 0 0 0 30
0.4316 0.0062 -0.0161 0 0 0 30
0.4589 0.0062 -0.0154 0 0 0 0
0.4779 0.0064 -0.0133 0 0 0 30
0.4779 0.0061 -0.0089 0 0 0 30
0.4463 0.0061 -0.0074 0 0 0 0
0.4505 0.0066 0.0154 0 0 0 30
0.4105 0.0071 0.0163 0 0 0 30
0.4147 0.0069 0.0186 0 0 0 30
0.4021 0.0070 0.0169 0 0 0 0
0.4505 0.0071 0.0174 0 0 0 30
0.4358 0.0077 0.0169 0 0 0 30
0.4211 0.0073 0.0193 0 0 0 0
0.4126 0.0070 0.0216 0 0 0 30
0.3916 0.0070 0.0212 0 0 0 30
0.4147 0.0069 0.0227 0 0 0 0
0.4316 0.0069 0.0224 0 0 0 30
0.4442 0.0078 0.0268 0 0 0 30
0.4189 0.0077 0.0282 0 0 0 30
0.4189 0.0075 0.0286 0 0 0 0
0.4147 0.0068 0.0370 0 0 0 30
0.4147 0.0072 0.0379 0 0 0 30
0.4316 0.0071 0.0392 0 0 0 30
0.4379 0.0071 0.0408 0 0 0 0
0.4232 0.0077 0.0460 0 0 0 30
0.4211 0.0067 0.0471 0 0 0 30
0.4337 0.0063 0.0491 0 0 0 30
0.4189 0.0073 0.0489 0 0 0 0
0.4126 0.0081 0.0460 0 0 0 30
0.4063 0.0071 0.0482 0 0 0 0
0.4147 0.0081 0.0569 0 0 0 -30
0.4021 0.0078 0.0550 0 0 0 -30
0.4126 0.0077 0.0548 0 0 0 0
0.4463 0.0075 0.0544 0 0 0 -30
0.4316 0.0077 0.0528 0 0 0 -30
0.4316 0.0077 0.0528 0 0 0 0
0.4021 0.0083 0.0524 0 0 0 -30
0.3958 0.0073 0.0513 0 0 0 -30
0.3958 0.0073 0.0513 0 0 0 0
0.3958 0.0070 0.0488 0 0 0 -30
0.4063 0.0061 0.0459 0 0 0 -30
0.4063 0.0061 0.0459 0 0 0 0
0.4042 0.0061 0.0424 0 0 0 -30
0.4126 0.0062 0.0414 0 0 0 -30
0.4126 0.0070 0.0404 0 0 0 0
0.3979 0.0070 0.0377 0 0 0 -30
0.4189 0.0063 0.0345 0 0 0 -30
0.4189 0.0063 0.0345 0 0 0 -30
0.4421 0.0065 0.0324 0 0 0 0
0.4084 0.0071 0.0314 0 0 0 -30
0.4168 0.0071 0.0299 0 0 0 -30
0.4084 0.0071 0.0274 0 0 0 -30
0.4168 0.0072 0.0271 0 0 0 0
0.4232 0.0073 0.0274 0 0 0 -30
0.4126 0.0071 0.0267 0 0 0 -30
0.4295 0.0067 0.0249 0 0 0 0
0.4021 0.0071 0.0197 0 0 0 -30
0.4463 0.0061 0.0163 0 0 0 0
0.4484 0.0059 0.0124 0 0 0 -30
0.4400 0.0061 0.0116 0 0 0 -30
0.4484 0.0062 0.0117 0 0 0 0
0.4547 0.0065 0.0109 0 0 0 -30
0.4632 0.0058 0.0098 0 0 0 0
0.4632 0.0052 0.0025 0 0 0 -30
0.4505 0.0061 0.0012 0 0 0 -30
0.4379 0.0060 0.0008 0 0 0 0
0.4547 0.0057 -0.0002 0 -30 0 0
0.4168 0.0066 -0.0032 0 -30 0 0
0.4632 0.0060 0.0014 0 -30 0 0
0.4632 0.0060 0.0014 0 -30 0 0
0.4526 0.0060 0.0011 -30 -30 0 0
0.4589 0.0061 0.0019 -30 -30 0 0
0.4400 0.0061 0.0013 -30 -30 0 0
0.4505 0.0060 -0.0001 -30 -30 0 0
0.4505 0.0060 -0.0001 -30 -30 0 0
0.4126 0.0056 -0.0002 -30 -30 0 0
0.4316 0.0058 -0.0016 -30 -30 0 0
0.4316 0.0059 -0.0022 -30 -30 0 0
0.4484 0.0059 -0.0021 -30 -30 0 0
0.4358 0.0059 -0.0019 -30 -30 0 0
0.4147 0.0057 -0.0024 -30 -30 0 0
0.4274 0.0057 -0.0026 -30 -30 0 0
0.4400 0.0054 -0.0029 -30 -30 0 0
0.4400 0.0054 -0.0029 -30 -30 0 0
0.4274 0.0051 -0.0035 -30 -30 0 0
0.4126 0.0046 -0.0056 -30 -30 0 0
0.4147 0.0046 -0.0040 -30 -30 0 0
0.4147 0.0046 -0.0040 -30 -30 0 0
0.4358 0.0049 -0.0043 -30 -30 0 0
0.4232 0.0047 -0.0067 -30 -30 0 0
0.4505 0.0051 -0.0071 -30 -30 0 0
0.4253 0.0054 -0.0079 -30 -30 0 0
0.4379 0.0058 -0.0082 -30 -30 0 0
0.4379 0.0058 -0.0082 -30 -30 0 0
0.4232 0.0059 -0.0102 -30 -30 0 0
0.4295 0.0059 -0.0108 -30 -30 0 0
0.4316 0.0058 -0.0141 -30 -30 0 0
0.4274 0.0058 -0.0150 -30 -30 0 0
0.4274 0.0058 -0.0150 -30 0 0 0
0.4253 0.0058 -0.0149 -30 0 0 0
0.4484 0.0061 -0.0150 -30 0 0 0
0.4568 0.0062 -0.0149 -30 0 0 0
0.4379 0.0064 -0.0154 -30 0 0 0
0.4379 0.0064 -0.0154 -30 0 0 0
0.4211 0.0066 -0.0147 -30 0 0 0
0.4653 0.0068 -0.0149 -30 0 0 0
0.4484 0.0066 -0.0146 -30 0 0 0
0.4316 0.0068 -0.0144 -30 0 0 0
0.4316 0.0068 -0.0144 -30 0 0 0
0.4400 0.0065 -0.0138 -30 0 0 0
0.4316 0.0058 -0.0138 -30 0 0 0
0.4253 0.0053 -0.0138 -30 0 0 0
0.4253 0.0053 -0.0139 -30 0 0 0
0.4442 0.0053 -0.0139 -30 0 0 0
0.4400 0.0057 -0.0135 -30 0 0 0
0.4400 0.0062 -0.0129 -30 0 0 0
0.4379 0.0069 -0.0129 -30 0 0 0
0.4379 0.0069 -0.0129 -30 0 0 0
0.4568 0.0065 -0.0135 -30 0 0 0
0.4505 0.0062 -0.0147 -30 0 0 0
0.4505 0.0058 -0.0154 -30 0 0 0
0.4463 0.0058 -0.0154 -30 0 0 0
0.4547 0.0058 -0.0144 -30 0 0 0
0.4379 0.0059 -0.0141 -30 0 0 0
0.4358 0.0064 -0.0141 -30 0 0 0
0.4442 0.0069 -0.0148 -30 0 0 0
0.4547 0.0072 -0.0146 -30 0 0 0
0.4547 0.0072 -0.0146 -30 0 0 0
0.4253 0.0068 -0.0147 -30 0 0 0
0.4716 0.0066 -0.0149 -30 0 0 0
0.4568 0.0065 -0.0154 -30 0 0 0
0.4568 0.0065 -0.0154 -30 0 0 0
0.4484 0.0065 -0.0172 -30 0 0 0
0.4547 0.0062 -0.0150 -30 0 0 0
0.4568 0.0061 -0.0136 -30 0 0 0
0.4421 0.0060 -0.0137 -30 0 0 0
0.4674 0.0059 -0.0139 -30 0 0 0
0.4674 0.0059 -0.0135 -30 0 0 0
0.4568 0.0062 -0.0167 -30 0 0 0
0.4568 0.0062 -0.0167 -30 0 0 0
0.4463 0.0064 -0.0194 -30 0 0 0
0.4400 0.0060 -0.0183 -30 0 0 0
0.4484 0.0055 -0.0154 -30 0 0 0
0.4484 0.0055 -0.0154 -30 0 0 0
0.4611 0.0054 -0.0121 -30 0 0 0
0.4505 0.0054 -0.0113 -30 0 0 0
0.4737 0.0057 -0.0079 -30 0 0 0
0.4568 0.0066 -0.0083 -30 0 0 0
0.4526 0.0068 -0.0081 -30 0 0 0
0.4505 0.0066 -0.0083 -30 0 0 0
0.4505 0.0066 -0.0083 -30 0 0 0
0.4442 0.0061 -0.0091 -30 0 0 0
0.4547 0.0060 -0.0142 -30 0 0 0
0.4526 0.0059 -0.0145 -30 0 0 0
0.4526 0.0059 -0.0145 -30 0 0 0
0.4484 0.0064 -0.0154 -30 0 0 0
0.4695 0.0066 -0.0163 -30 0 0 0
0.4505 0.0069 -0.0172 -30 0 0 0
0.4505 0.0069 -0.0172 -30 0 0 0
0.4737 0.0071 -0.0183 -30 0 0 0
0.4526 0.0070 -0.0176 -30 0 0 0
0.4653 0.0068 -0.0181 -30 0 0 0
0.4442 0.0064 -0.0188 -30 0 0 0
0.4589 0.0062 -0.0200 -30 0 0 0
0.4653 0.0067 -0.0199 -30 0 0 0
0.4674 0.0068 -0.0204 -30 0 0 0
0.4589 0.0069 -0.0195 -30 0 0 0
0.4589 0.0069 -0.0195 -30 0 0 0
0.4505 0.0068 -0.0212 -30 0 0 0
0.4821 0.0067 -0.0235 -30 0 0 0
0.4632 0.0064 -0.0242 -30 0 0 0
0.4716 0.0064 -0.0256 -30 0 0 0
0.4716 0.0064 -0.0256 -30 0 0 0
0.4568 0.0061 -0.0241 -30 0 0 0
0.4379 0.0059 -0.0246 -30 0 0 0
0.4337 0.0059 -0.0251 -30 0 0 0
0.4337 0.0059 -0.0251 -30 0 0 0
0.4463 0.0058 -0.0275 -30 0 0 0
0.4484 0.0058 -0.0275 -30 0 0 0
0.4442 0.0059 -0.0294 -30 0 0 0
0.4800 0.0062 -0.0315 -30 0 0 0
0.4632 0.0059 -0.0327 -30 0 0 0
0.4632 0.0059 -0.0327 -30 0 0 0
0.4379 0.0058 -0.0329 -30 0 0 0
0.4484 0.0059 -0.0341 -30 0 0 0
0.4463 0.0064 -0.0318 -30 0 0 0
0.4463 0.0064 -0.0318 -30 0 0 0
0.4547 0.0064 -0.0300 -30 0 0 0
0.4632 0.0060 -0.0279 -30 0 0 0
0.4547 0.0058 -0.0268 -30 0 0 0
0.4547 0.0058 -0.0268 -30 0 0 0
0.4653 0.0060 -0.0244 -30 0 0 0
0.4653 0.0060 -0.0244 -30 0 0 0
0.4589 0.0066 -0.0208 -30 0 0 0
0.4526 0.0066 -0.0186 -30 0 0 0
0.4505 0.0066 -0.0176 -30 0 0 0
0.4505 0.0066 -0.0176 -30 0 0 0
0.4632 0.0065 -0.0185 -30 0 0 0
0.4358 0.0062 -0.0190 -30 0 0 0
0.4463 0.0062 -0.0190 -30 0 0 0
0.4463 0.0062 -0.0190 -30 0 0 0
0.4316 0.0070 -0.0192 -30 0 0 0
0.4316 0.0070 -0.0192 -30 0 0 0
0.4421 0.0068 -0.0185 -30 0 0 0
0.4379 0.0070 -0.0180 -30 0 0 0
0.4400 0.0068 -0.0171 -30 0 0 0
0.4400 0.0068 -0.0171 -30 0 0 0
0.4442 0.0064 -0.0169 -30 0 0 0
0.4442 0.0061 -0.0168 -30 0 0 0
0.4463 0.0061 -0.0165 -30 0 0 0
0.4463 0.0061 -0.0165 -30 0 0 0
0.4442 0.0061 -0.0157 -30 0 0 0
0.4547 0.0060 -0.0155 -30 0 0 0
0.4232 0.0062 -0.0162 0 0 0 0
0.4295 0.0062 -0.0160 0 -30 0 0
0.4253 0.0061 -0.0156 0 -30 0 0
0.4168 0.0062 -0.0154 0 -30 0 0
0.4168 0.0062 -0.0154 0 -30 0 0
0.4316 0.0059 -0.0163 0 -30 0 0
0.4337 0.0056 -0.0164 -30 -30 0 0
0.4316 0.0055 -0.0173 -30 -30 0 0
0.4379 0.0059 -0.0174 -30 -30 0 0
0.4379 0.0059 -0.0174 -30 -30 0 0
0.4505 0.0068 -0.0172 -30 -30 0 0
0.4505 0.0068 -0.0172 -30 -30 0 0
0.4421 0.0064 -0.0180 -30 -30 0 0
0.4442 0.0058 -0.0191 -30 -30 0 0
0.4442 0.0058 -0.0191 -30 -30 0 0
0.4442 0.0055 -0.0189 -30 -30 0 0
0.4379 0.0058 -0.0197 -30 -30 0 0
0.4505 0.0058 -0.0214 -30 -30 0 0
0.4505 0.0058 -0.0214 0 -30 0 0
0.4568 0.0060 -0.0216 0 -30 0 0
0.4526 0.0061 -0.0228 0 -30 0 0
0.4505 0.0062 -0.0225 0 -30 0 0
0.4400 0.0061 -0.0217 0 -30 0 0
0.4274 0.0062 -0.0215 0 -30 0 0
0.4295 0.0064 -0.0219 0 -30 0 0
0.4442 0.0067 -0.0214 0 -30 0 0
0.4253 0.0068 -0.0212 0 -30 0 0
0.4379 0.0074 -0.0207 0 -30 0 0
0.4337 0.0075 -0.0193 0 -30 0 0
0.4400 0.0070 -0.0192 0 -30 0 0
0.4484 0.0068 -0.0194 0 -30 0 0
0.4484 0.0064 -0.0199 0 -30 0 0
0.4484 0.0066 -0.0196 0 -30 0 0
0.4505 0.0066 -0.0196 0 -30 0 0
0.4484 0.0066 -0.0194 0 -30 0 0
0.4484 0.0066 -0.0192 0 -30 0 0
0.4611 0.0067 -0.0190 0 -30 0 0
0.4674 0.0065 -0.0194 0 -30 0 0
0.4674 0.0065 -0.0194 0 -30 0 0
0.4716 0.0064 -0.0188 0 -30 0 0
0.4526 0.0067 -0.0184 0 -30 0 0
0.4526 0.0071 -0.0183 0 -30 0 0
0.4547 0.0070 -0.0187 0 -30 0 0
0.4547 0.0070 -0.0187 0 -30 0 0
0.4358 0.0075 -0.0188 0 -30 0 0
0.4358 0.0079 -0.0191 0 -30 0 0
0.4695 0.0081 0.3720 0 -30 0 0
0.4358 0.0083 0.3716 0 -30 0 0
0.4463 0.0079 0.3704 0 -30 0 0
0.4463 0.0079 0.3704 0 -30 0 0
0.4442 0.0075 0.3685 0 -30 0 0
0.4463 0.0074 0.3686 0 -30 0 0
0.4295 0.0073 0.3689 0 -30 0 0
0.4421 0.0073 0.3693 0 -30 0 0
0.4695 0.0071 0.3692 0 -30 0 0
0.4505 0.0072 0.3691 0 -30 0 0
0.4526 0.0074 0.3699 0 -30 0 0
0.4526 0.0074 0.3699 0 -30 0 0
0.4632 0.0077 0.3702 0 -30 0 0
0.4484 0.0081 0.3713 0 -30 0 0
0.4484 0.0086 0.3714 0 -30 0 0
0.4316 0.0081 0.3726 0 -30 0 0
0.4400 0.0077 0.3744 0 -30 0 0
0.4400 0.0077 0.3744 0 -30 0 0
0.4316 0.0077 0.3742 0 -30 0 0
0.4421 0.0075 0.3752 0 -30 0 0
0.4526 0.0074 0.3768 0 -30 0 0
0.4442 0.0077 0.3758 0 -30 0 0
0.4442 0.0077 0.3758 0 -30 0 0
0.4568 0.0080 0.3776 0 -30 0 0
0.4547 0.0073 0.3764 0 -30 0 0
0.4484 0.0067 0.3767 0 -30 0 0
0.4484 0.0067 0.3767 0 -30 0 0
