0.6189 -2.3239 -0.0075 -30 0 0 0
0.6126 -2.3245 -0.0084 -30 0 0 0
0.5937 -2.3243 -0.0087 -30 0 0 0
0.6084 -2.3244 -0.0072 -30 0 0 0
0.5979 -2.3242 -0.0078 0 0 0 0
0.5811 -2.3247 -0.0070 -30 0 0 0
0.5558 -2.3240 -0.0084 -30 0 0 0
0.5853 -2.3246 -0.0117 -30 0 0 0
0.5537 -2.3246 -0.0114 -30 0 0 0
0.5537 -2.3246 -0.0114 -30 0 0 0
0.5600 -2.3244 -0.0139 -30 0 0 0
0.5558 -2.3243 -0.0139 -30 0 0 0
0.5726 -2.3246 -0.0134 -30 0 0 0
0.5726 -2.3246 -0.0134 -30 0 0 0
0.5600 -2.3243 -0.0126 -30 0 0 0
0.5516 -2.3239 -0.0111 -30 0 0 0
0.5516 -2.3239 -0.0111 -30 0 0 0
0.5558 -2.3234 -0.0102 0 0 0 0
0.5411 -2.3239 -0.0011 -30 0 0 0
0.5600 -2.3233 0.0032 -30 0 0 0
0.5537 -2.3244 0.0044 -30 0 0 0
0.5432 -2.3237 0.0019 -30 0 0 0
0.5516 -2.3234 0.0019 -30 0 0 0
0.5411 -2.3235 0.0015 -30 0 0 0
0.5411 -2.3235 0.0015 0 0 0 0
0.5242 -2.3248 0.0003 -30 0 0 0
0.5242 -2.3241 0.0005 -30 0 0 0
0.5305 -2.3240 0.0013 -30 0 0 0
0.5305 -2.3240 0.0013 -30 0 0 0
0.5074 -2.3236 0.0009 -30 0 0 0
0.5179 -2.3229 0.0004 -30 0 0 0
0.5011 -2.3228 0.0002 0 0 0 0
0.5326 -2.3239 -0.0052 0 -30 0 0
0.5368 -2.3242 -0.0006 0 -30 0 0
0.5137 -2.3242 0.0009 0 -30 0 0
0.5137 -2.3242 0.0009 0 -30 0 0
0.5032 -2.3241 0.0026 0 -30 0 0
0.5200 -2.3241 0.0022 0 -30 0 0
0.5326 -2.3244 0.0020 0 -30 0 0
0.5095 -2.3245 0.0022 0 -30 0 0
0.4947 -2.3246 0.0021 0 -30 0 0
0.5053 -2.3242 0.0017 0 -30 0 0
0.4989 -2.3244 0.0018 0 -30 0 0
0.4905 -2.3243 0.0027 0 -30 0 0
0.4905 -2.3240 0.0029 0 -30 0 0
0.4905 -2.3240 0.0029 0 -30 0 0
0.4926 -2.3241 0.0010 0 -30 0 0
0.4779 -2.3243 0.0023 0 -30 0 0
0.4800 -2.3241 0.0025 0 -30 0 0
0.4842 -2.3241 0.0040 0 -30 0 0
0.4842 -2.3241 0.0040 0 -30 0 0
0.4905 -2.3244 0.0043 0 -30 0 0
0.5074 -2.3245 0.0087 0 -30 0 0
0.5053 -2.3248 0.0083 0 -30 0 0
0.4926 -2.3254 0.0083 0 -30 0 0
0.4926 -2.3254 0.0083 0 -30 0 0
0.4821 -2.3256 0.0078 0 -30 0 0
0.4716 -2.3254 0.0079 0 -30 0 0
0.4632 -2.3249 0.0080 0 -30 0 0
0.4863 -2.3243 0.0063 0 -30 0 0
0.4358 -2.3240 0.0051 0 -30 0 0
0.4358 -2.3240 0.0051 0 -30 0 0
0.4737 -2.3237 0.0087 0 -30 0 0
0.4653 -2.3239 0.0114 0 -30 0 0
0.4758 -2.3241 0.0106 0 -30 0 0
0.4758 -2.3241 0.0106 0 -30 0 0
0.4737 -2.3239 0.0126 0 -30 0 0
0.4611 -2.3239 0.0128 0 -30 0 0
0.4568 -2.3239 0.0126 0 -30 0 0
0.4568 -2.3239 0.0126 0 -30 0 0
0.4716 -2.3249 0.0164 0 -30 0 0
0.4674 -2.3248 0.0218 0 -30 0 0
0.4779 -2.3253 0.0213 0 -30 0 0
0.4800 -2.3255 0.0260 0 -30 0 0
0.4800 -2.3255 0.0260 0 -30 0 0
0.4674 -2.3257 0.0263 0 -30 0 0
0.4632 -2.3254 0.0261 0 -30 0 0
0.4442 -2.3245 0.0252 0 -30 0 0
0.4442 -2.3245 0.0252 0 -30 0 0
0.4526 -2.3245 0.0262 0 -30 0 0
0.4716 -2.3244 0.0254 0 -30 0 0
0.4695 -2.3245 0.0251 0 -30 0 0
0.4674 -2.3244 0.0231 0 -30 0 0
0.4653 -2.3240 0.0220 0 -30 0 0
0.4632 -2.3236 0.0209 0 -30 0 0
0.4653 -2.3235 0.0203 0 -30 0 0
0.4611 -2.3232 0.0219 0 -30 0 0
0.4547 -2.3234 0.0204 0 -30 0 0
0.4547 -2.3234 0.0204 0 -30 0 0
0.4611 -2.3246 0.0205 0 -30 0 0
0.4505 -2.3251 0.0216 0 -30 0 0
0.4505 -2.3251 0.0206 0 -30 0 0
0.4568 -2.3249 0.0208 0 -30 0 0
0.4568 -2.3249 0.0208 0 -30 0 0
0.4421 -2.3248 0.0199 0 -30 0 0
0.4526 -2.3247 0.0202 0 -30 0 0
0.4632 -2.3241 0.0188 0 -30 0 0
0.4632 -2.3241 0.0188 0 -30 0 0
0.4463 -2.3242 0.0185 0 -30 0 0
0.4526 -2.3244 0.0178 0 -30 0 0
0.4526 -2.3245 0.0169 0 -30 0 0
0.4442 -2.3246 0.0164 0 -30 0 0
0.4442 -2.3246 0.0164 0 -30 0 0
0.4442 -2.3251 0.0151 0 -30 0 0
0.4400 -2.3249 0.0156 0 -30 0 0
0.4400 -2.3248 0.0148 0 -30 0 0
0.4400 -2.3248 0.0148 0 -30 0 0
0.4400 -2.3246 0.0154 0 -30 0 0
0.4526 -2.3246 0.0147 0 -30 0 0
0.4695 -2.3248 0.0130 0 -30 0 0
0.4737 -2.3246 0.0124 0 -30 0 0
0.4737 -2.3244 0.0129 0 -30 0 0
0.4568 -2.3244 0.0129 0 -30 0 0
0.4505 -2.3240 0.0122 0 -30 0 0
0.4758 -2.3238 0.0124 0 -30 0 0
0.4716 -2.3239 0.0122 0 -30 0 0
0.4716 -2.3239 0.0122 0 -30 0 0
0.4379 -2.3244 0.0101 0 -30 0 0
0.4653 -2.3244 0.0098 0 -30 0 0
0.4526 -2.3247 0.0078 0 -30 0 0
0.4758 -2.3253 0.0072 0 -30 0 0
0.4695 -2.3251 0.0072 0 -30 0 0
0.4968 -2.3251 0.0070 0 -30 0 0
0.4968 -2.3251 0.0070 0 -30 0 0
0.4800 -2.3252 0.0071 0 -30 0 0
0.4632 -2.3251 0.0069 0 -30 0 0
0.4547 -2.3246 0.0067 0 -30 0 0
0.4547 -2.3246 0.0067 0 -30 0 0
0.4421 -2.3247 0.0046 0 -30 0 0
0.4505 -2.3247 0.0034 0 -30 0 0
0.4589 -2.3250 0.0029 0 -30 0 0
0.4589 -2.3250 0.0029 0 -30 0 0
0.4589 -2.3249 -0.0022 0 -30 0 0
0.4526 -2.3247 -0.0020 0 -30 0 0
0.4526 -2.3247 -0.0020 0 -30 0 0
0.4968 -2.3245 0.0015 0 -30 0 0
0.4695 -2.3242 0.0008 0 -30 0 0
0.4674 -2.3246 0.0017 0 -30 0 0
0.4568 -2.3247 0.0018 0 -30 0 0
0.4674 -2.3249 0.0041 0 -30 0 0
0.4695 -2.3253 0.0043 0 -30 0 0
0.4821 -2.3251 0.0039 0 -30 0 0
0.4695 -2.3246 0.0039 0 -30 0 0
0.4674 -2.3240 0.0050 0 -30 0 0
0.4674 -2.3240 0.0050 0 -30 0 0
0.4737 -2.3229 0.0054 0 -30 0 0
0.4695 -2.3231 0.0053 0 -30 0 0
0.4779 -2.3234 0.0067 0 -30 0 0
0.4779 -2.3242 0.0073 0 -30 0 0
0.4779 -2.3242 0.0089 0 -30 0 0
0.4779 -2.3242 0.0089 0 -30 0 0
0.4526 -2.3240 0.0086 0 -30 0 0
0.4779 -2.3226 0.0109 0 -30 0 0
0.4505 -2.3227 0.0108 0 -30 0 0
0.4505 -2.3227 0.0108 0 -30 0 0
0.4547 -2.3234 0.0124 0 -30 0 0
0.4547 -2.3234 0.0124 0 -30 0 0
0.4716 -2.3238 0.0136 0 -30 0 0
0.4568 -2.3237 0.0132 0 -30 0 0
0.4505 -2.3237 0.0132 0 -30 0 0
0.4484 -2.3238 0.0133 0 -30 0 0
0.4611 -2.3237 0.0118 0 -30 0 0
0.4547 -2.3240 0.0112 0 -30 0 0
0.4547 -2.3240 0.0112 0 -30 0 0
0.4716 -2.3244 0.0105 0 -30 0 0
0.4442 -2.3244 0.0106 0 -30 0 0
0.4674 -2.3246 0.0103 0 -30 0 0
0.4758 -2.3247 0.0098 0 -30 0 0
0.4758 -2.3247 0.0098 0 -30 0 0
0.4611 -2.3246 0.0064 0 -30 0 0
0.4611 -2.3246 0.0064 0 -30 0 0
0.4463 -2.3247 0.0008 0 -30 0 0
0.4421 -2.3251 0.0013 0 -30 0 0
0.4695 -2.3253 0.0013 0 -30 0 0
0.4695 -2.3253 0.0013 0 -30 0 0
0.4716 -2.3251 0.0022 0 -30 0 0
0.4695 -2.3251 0.0026 0 -30 0 0
0.4674 -2.3250 0.0003 0 -30 0 0
0.4547 -2.3250 -0.0032 0 -30 0 0
0.4463 -2.3248 -0.0038 0 -30 0 0
0.4463 -2.3248 -0.0038 0 -30 0 0
0.4568 -2.3247 -0.0022 0 -30 0 0
0.4674 -2.3251 -0.0014 0 -30 0 0
0.4379 -2.3251 -0.0008 0 -30 0 0
0.4379 -2.3251 -0.0008 0 -30 0 0
0.4400 -2.3255 0.0006 0 -30 0 0
0.4400 -2.3255 0.0006 0 -30 0 0
0.4716 -2.3261 0.0011 0 -30 0 0
0.4568 -2.3256 0.0029 0 -30 0 0
0.4611 -2.3256 0.0029 0 -30 0 0
0.4611 -2.3252 0.0035 0 -30 0 0
0.4526 -2.3254 0.0034 0 -30 0 0
0.4611 -2.3260 0.0019 0 -30 0 0
0.4611 -2.3260 0.0019 0 -30 0 0
0.4589 -2.3257 0.0020 0 -30 0 0
0.4632 -2.3254 0.0021 0 -30 0 0
0.4589 -2.3249 0.0019 0 -30 0 0
0.4379 -2.3247 0.0022 0 -30 0 0
0.4379 -2.3247 0.0022 0 -30 0 0
0.4421 -2.3245 0.0023 0 -30 0 0
0.4526 -2.3245 0.0010 0 -30 0 0
0.4737 -2.3244 0.0011 0 -30 0 0
0.4505 -2.3244 0.0013 0 -30 0 0
0.4611 -2.3247 0.0017 0 -30 0 0
0.4526 -2.3247 0.0019 0 -30 0 0
0.4526 -2.3246 0.0023 0 -30 0 0
0.4505 -2.3244 0.0025 0 -30 0 0
0.4505 -2.3244 0.0025 0 -30 0 0
0.4653 -2.3242 0.0009 0 -30 0 0
0.4316 -2.3248 0.0010 0 -30 0 0
0.4400 -2.3252 0.0006 0 -30 0 0
0.4400 -2.3252 0.0006 0 -30 0 0
0.4421 -2.3253 0.0010 0 -30 0 0
0.4379 -2.3256 0.0005 0 -30 0 0
0.4316 -2.3254 0.0004 0 -30 0 0
0.4484 -2.3254 0.0024 0 -30 0 0
0.4484 -2.3254 0.0024 0 -30 0 0
0.4379 -2.3248 0.0028 0 -30 0 0
0.4211 -2.3242 -0.0002 0 -30 0 0
0.4358 -2.3239 -0.0003 0 -30 0 0
0.4358 -2.3239 -0.0003 0 -30 0 0
0.4421 -2.3234 -0.0063 0 -30 0 0
0.4421 -2.3234 -0.0061 0 -30 0 0
0.4316 -2.3234 -0.0061 0 -30 0 0
0.4484 -2.3237 -0.0093 0 -30 0 0
0.4716 -2.3241 -0.0097 0 -30 0 0
0.4505 -2.3244 -0.0092 0 -30 0 0
0.4505 -2.3244 -0.0092 0 -30 0 0
0.4547 -2.3245 -0.0090 0 -30 0 0
0.4547 -2.3247 -0.0070 0 -30 0 0
0.4505 -2.3244 -0.0069 0 -30 0 0
0.4505 -2.3244 -0.0069 0 -30 0 0
0.4442 -2.3243 -0.0077 0 -30 0 0
0.4400 -2.3246 -0.0069 0 -30 0 0
0.4232 -2.3247 -0.0084 0 -30 0 0
0.4337 -2.3244 -0.0084 0 -30 0 0
0.4611 -2.3244 -0.0101 0 -30 0 0
0.4653 -2.3243 -0.0100 0 -30 0 0
0.4653 -2.3243 -0.0100 0 -30 0 0
0.4611 -2.3244 -0.0089 0 -30 0 0
0.4716 -2.3244 -0.0090 0 -30 0 0
0.4484 -2.3244 -0.0089 0 -30 0 0
0.4484 -2.3244 -0.0089 0 -30 0 0
0.4611 -2.3242 -0.0083 0 -30 0 0
0.4653 -2.3239 -0.0072 0 -30 0 0
0.4716 -2.3239 -0.0060 0 -30 0 0
0.4716 -2.3239 -0.0060 0 -30 0 0
0.4505 -2.3233 -0.0053 0 -30 0 0
0.4526 -2.3232 -0.0050 0 -30 0 0
0.4400 -2.3235 -0.0044 0 -30 0 0
0.4568 -2.3241 -0.0050 0 -30 0 0
0.4421 -2.3244 -0.0046 0 -30 0 0
0.4421 -2.3244 -0.0046 0 -30 0 0
0.4547 -2.3247 -0.0059 0 -30 0 0
0.4421 -2.3244 -0.0061 0 -30 0 0
0.4232 -2.3242 -0.0076 0 -30 0 0
0.4379 -2.3244 -0.0070 0 -30 0 0
0.4379 -2.3244 -0.0070 0 -30 0 0
0.4589 -2.3246 -0.0067 0 -30 0 0
0.4337 -2.3250 -0.0064 0 -30 0 0
0.4400 -2.3250 -0.0065 0 -30 0 0
0.4400 -2.3253 -0.0067 0 -30 0 0
0.4400 -2.3253 -0.0067 0 -30 0 0
0.4295 -2.3255 -0.0063 0 -30 0 0
0.4295 -2.3254 -0.0072 0 -30 0 0
0.4442 -2.3251 -0.0068 0 -30 0 0
0.4442 -2.3251 -0.0068 0 -30 0 0
0.4526 -2.3252 -0.0066 0 -30 0 0
0.4400 -2.3251 -0.0065 0 -30 0 0
0.4505 -2.3252 -0.0065 0 -30 0 0
0.4547 -2.3252 -0.0047 0 -30 0 0
0.4547 -2.3252 -0.0047 0 -30 0 0
0.4547 -2.3252 -0.0042 0 -30 0 0
0.4505 -2.3254 -0.0057 0 -30 0 0
0.4716 -2.3253 -0.0077 0 -30 0 0
0.4716 -2.3253 -0.0077 0 -30 0 0
0.4526 -2.3253 -0.0080 0 -30 0 0
0.4674 -2.3249 -0.0103 0 -30 0 0
0.4779 -2.3250 -0.0101 0 -30 0 0
0.4779 -2.3250 -0.0101 0 -30 0 0
0.4568 -2.3251 -0.0072 0 -30 0 0
0.4568 -2.3251 -0.0072 0 -30 0 0
0.4379 -2.3249 -0.0051 0 -30 0 0
0.4568 -2.3250 -0.0048 0 -30 0 0
0.4421 -2.3250 -0.0050 0 -30 0 0
0.4421 -2.3250 -0.0050 0 -30 0 0
0.4295 -2.3249 -0.0047 0 -30 0 0
0.4421 -2.3247 -0.0046 0 -30 0 0
0.4400 -2.3249 -0.0047 0 -30 0 0
0.4421 -2.3251 -0.0045 0 -30 0 0
0.4421 -2.3251 -0.0045 0 -30 0 0
0.4421 -2.3252 -0.0040 0 -30 0 0
0.4547 -2.3251 -0.0038 0 -30 0 0
0.4547 -2.3249 -0.0047 0 -30 0 0
0.4379 -2.3245 -0.0049 0 -30 0 0
0.4379 -2.3245 -0.0049 0 -30 0 0
0.4568 -2.3240 -0.0054 0 -30 0 0
0.4442 -2.3239 -0.0047 0 -30 0 0
0.4379 -2.3237 -0.0052 0 -30 0 0
0.4274 -2.3235 -0.0076 0 -30 0 0
0.4274 -2.3235 -0.0076 0 -30 0 0
0.4421 -2.3238 -0.0052 0 -30 0 0
0.4421 -2.3239 -0.0043 0 -30 0 0
0.4421 -2.3239 -0.0043 0 -30 0 0
0.4716 -2.3244 -0.0046 0 -30 0 0
0.4526 -2.3241 -0.0028 0 -30 0 0
0.4316 -2.3239 -0.0027 0 -30 0 0
0.4358 -2.3244 -0.0032 0 -30 0 0
0.4358 -2.3244 -0.0032 0 -30 0 0
0.4568 -2.3247 -0.0026 0 -30 0 0
0.4716 -2.3247 -0.0026 0 -30 0 0
0.4695 -2.3246 -0.0005 0 -30 0 0
0.4695 -2.3246 -0.0005 0 -30 0 0
0.4568 -2.3240 0.0001 0 -30 0 0
0.4105 -2.3238 0.0043 0 -30 0 0
0.4274 -2.3242 0.0055 0 -30 0 0
0.4379 -2.3242 0.0055 0 -30 0 0
0.4063 -2.3246 0.0043 0 -30 0 0
0.4168 -2.3250 0.0067 0 -30 0 0
0.4274 -2.3248 0.0060 0 -30 0 0
0.4274 -2.3248 0.0060 0 -30 0 0
0.4274 -2.3242 0.0060 0 -30 0 0
0.4253 -2.3239 0.0061 0 -30 0 0
0.4295 -2.3236 0.0060 0 -30 0 0
0.4126 -2.3239 0.0062 0 -30 0 0
0.4442 -2.3241 0.0054 0 -30 0 0
0.4274 -2.3242 0.0075 0 -30 0 0
0.4274 -2.3242 0.0075 0 -30 0 0
0.4316 -2.3240 0.0074 0 -30 0 0
0.4316 -2.3237 0.0079 0 -30 0 0
0.4632 -2.3233 0.0077 0 -30 0 0
0.4632 -2.3233 0.0077 0 -30 0 0
0.4505 -2.3235 0.0090 0 -30 0 0
0.4421 -2.3235 0.0080 0 -30 0 0
0.4442 -2.3241 0.0099 0 -30 0 0
0.4442 -2.3241 0.0099 0 -30 0 0
0.4442 -2.3239 0.0121 0 -30 0 0
0.4442 -2.3239 0.0121 0 -30 0 0
0.4526 -2.3239 0.0127 0 -30 0 0
0.4421 -2.3244 0.0134 0 -30 0 0
0.4421 -2.3244 0.0134 0 -30 0 0
0.4295 -2.3254 0.0131 0 -30 0 0
0.4295 -2.3256 0.0133 0 -30 0 0
0.4568 -2.3258 0.0128 0 -30 0 0
0.4568 -2.3258 0.0128 0 -30 0 0
0.4274 -2.3261 0.0149 0 -30 0 0
0.4547 -2.3260 0.0145 0 -30 0 0
0.4526 -2.3260 0.0155 0 -30 0 0
0.4526 -2.3260 0.0155 0 -30 0 0
0.4421 -2.3255 0.0155 0 -30 0 0
0.4316 -2.3252 0.0165 0 -30 0 0
0.4358 -2.3248 0.0160 0 -30 0 0
0.4547 -2.3247 0.0173 0 -30 0 0
0.4547 -2.3247 0.0173 0 -30 0 0
0.4358 -2.3249 0.0186 0 -30 0 0
0.4463 -2.3250 0.0196 0 -30 0 0
0.4463 -2.3250 0.0196 0 -30 0 0
0.4716 -2.3251 0.0196 0 -30 0 0
0.4716 -2.3251 0.0196 0 -30 0 0
0.4484 -2.3256 0.0188 0 -30 0 0
0.4568 -2.3257 0.0172 0 -30 0 0
0.4526 -2.3260 0.0169 0 -30 0 0
0.4526 -2.3260 0.0169 0 -30 0 0
0.4421 -2.3260 0.0172 0 -30 0 0
0.4295 -2.3261 0.0169 0 -30 0 0
0.4400 -2.3260 0.0174 0 -30 0 0
0.4358 -2.3259 0.0168 0 -30 0 0
0.4358 -2.3259 0.0168 0 -30 0 0
0.4442 -2.3255 0.0153 0 -30 0 0
0.4358 -2.3256 0.0146 0 -30 0 0
0.4358 -2.3256 0.0146 0 -30 0 0
0.4547 -2.3262 0.0141 0 -30 0 0
0.4400 -2.3262 0.0141 0 -30 0 0
0.4379 -2.3262 0.0116 0 -30 0 0
0.4211 -2.3255 0.0116 0 -30 0 0
0.4211 -2.3255 0.0116 0 -30 0 0
0.4526 -2.3250 0.0117 0 -30 0 0
0.4568 -2.3248 0.0108 0 -30 0 0
0.4568 -2.3249 0.0107 0 -30 0 0
0.4547 -2.3253 0.0105 0 -30 0 0
0.4547 -2.3253 0.0105 0 -30 0 0
0.4779 -2.3253 0.0109 0 -30 0 0
0.4653 -2.3253 0.0118 0 -30 0 0
0.4737 -2.3253 0.0118 0 -30 0 0
0.4737 -2.3255 0.0131 0 -30 0 0
0.4737 -2.3255 0.0131 0 -30 0 0
0.4484 -2.3253 0.0117 0 -30 0 0
0.4568 -2.3252 0.0097 0 -30 0 0
0.4547 -2.3253 0.0094 0 -30 0 0
0.4547 -2.3253 0.0094 0 -30 0 0
0.4632 -2.3254 0.0082 0 -30 0 0
0.4547 -2.3260 0.0082 0 -30 0 0
0.4526 -2.3260 0.0102 0 -30 0 0
0.4611 -2.3262 0.0101 0 -30 0 0
0.4611 -2.3262 0.0101 0 -30 0 0
0.4568 -2.3262 0.0124 0 -30 0 0
0.4611 -2.3254 0.0117 0 -30 0 0
0.4611 -2.3249 0.0115 0 -30 0 0
0.4611 -2.3249 0.0115 0 -30 0 0
0.4800 -2.3248 0.0111 0 -30 0 0
0.4526 -2.3248 0.0122 0 -30 0 0
0.4674 -2.3251 0.0142 0 -30 0 0
0.4926 -2.3253 0.0140 0 -30 0 0
0.4779 -2.3255 0.0138 0 -30 0 0
0.4779 -2.3255 0.0138 0 -30 0 0
0.4653 -2.3262 0.0134 0 -30 0 0
0.4505 -2.3256 0.0138 0 -30 0 0
0.4505 -2.3256 0.0138 0 -30 0 0
0.4758 -2.3253 0.0147 0 -30 0 0
0.4463 -2.3250 0.0143 0 -30 0 0
0.4779 -2.3250 0.0150 0 -30 0 0
0.4695 -2.3250 0.0148 0 -30 0 0
0.4821 -2.3251 0.0127 0 -30 0 0
0.4989 -2.3249 0.0122 0 -30 0 0
0.4842 -2.3249 0.0101 0 -30 0 0
0.4547 -2.3247 0.0101 0 -30 0 0
0.4568 -2.3248 0.0059 0 -30 0 0
0.4568 -2.3248 0.0059 0 -30 0 0
0.4695 -2.3249 0.0030 0 -30 0 0
0.4653 -2.3246 0.0026 0 -30 0 0
0.4800 -2.3243 -0.0014 0 -30 0 0
0.4737 -2.3244 -0.0012 0 -30 0 0
0.4737 -2.3244 -0.0012 0 -30 0 0
0.4758 -2.3246 -0.0019 0 -30 0 0
0.4716 -2.3251 -0.0018 0 -30 0 0
0.4695 -2.3254 -0.0004 0 -30 0 0
0.4947 -2.3255 -0.0003 0 -30 0 0
0.4884 -2.3256 0.0006 0 -30 0 0
0.4884 -2.3256 0.0006 0 -30 0 0
0.4968 -2.3255 0.0010 0 -30 0 0
0.4821 -2.3253 0.0010 0 -30 0 0
0.4968 -2.3251 0.0016 0 -30 0 0
0.4821 -2.3247 0.0029 0 -30 0 0
0.4821 -2.3247 0.0029 0 -30 0 0
0.4758 -2.3246 0.0034 0 -30 0 0
0.4526 -2.3246 0.0034 0 -30 0 0
0.4737 -2.3252 0.0036 0 -30 0 0
0.4737 -2.3253 0.0021 0 -30 0 0
0.4653 -2.3253 0.0021 0 -30 0 0
0.4716 -2.3253 0.0025 0 -30 0 0
0.4905 -2.3253 0.0039 0 -30 0 0
0.4758 -2.3248 0.0041 0 -30 0 0
0.4989 -2.3248 0.0020 0 -30 0 0
0.4989 -2.3247 0.0023 0 -30 0 0
0.4926 -2.3247 0.0023 0 -30 0 0
0.5053 -2.3250 0.0012 0 -30 0 0
0.5263 -2.3251 0.0012 0 -30 0 0
0.4863 -2.3254 0.0004 0 -30 0 0
0.4989 -2.3255 0.0005 0 -30 0 0
0.4821 -2.3256 0.0001 0 -30 0 0
0.4821 -2.3256 0.0001 0 -30 0 0
0.5116 -2.3255 -0.0016 0 -30 0 0
0.5095 -2.3255 -0.0017 0 -30 0 0
0.5263 -2.3255 -0.0015 0 -30 0 0
0.5263 -2.3255 -0.0015 0 -30 0 0
0.5137 -2.3252 -0.0020 0 -30 0 0
0.5179 -2.3248 -0.0057 0 -30 0 0
0.5095 -2.3239 -0.0055 0 -30 0 0
0.5095 -2.3239 -0.0055 0 -30 0 0
0.5263 -2.3233 -0.0076 0 -30 0 0
0.5263 -2.3233 -0.0076 0 -30 0 0
0.5263 -2.3237 -0.0091 0 -30 0 0
0.5158 -2.3239 -0.0090 0 -30 0 0
0.5221 -2.3240 -0.0094 0 -30 0 0
0.5305 -2.3240 -0.0093 0 -30 0 0
0.5305 -2.3240 -0.0093 0 -30 0 0
0.5074 -2.3239 -0.0093 0 -30 0 0
0.5095 -2.3237 -0.0087 0 -30 0 0
0.5368 -2.3236 -0.0080 0 -30 0 0
0.5368 -2.3236 -0.0080 0 -30 0 0
0.5537 -2.3235 -0.0078 0 -30 0 0
0.5305 -2.3237 -0.0076 0 -30 0 0
0.5284 -2.3241 -0.0079 0 -30 0 0
0.5347 -2.3243 -0.0075 0 -30 0 0
0.5284 -2.3244 -0.0099 0 -30 0 0
0.5284 -2.3244 -0.0099 0 -30 0 0
0.5305 -2.3244 -0.0102 0 -30 0 0
0.5347 -2.3247 -0.0125 0 -30 0 0
0.5221 -2.3246 -0.0129 0 -30 0 0
0.4926 -2.3246 -0.0143 0 -30 0 0
0.4926 -2.3246 -0.0143 0 -30 0 0
0.5095 -2.3247 -0.0142 0 -30 0 0
0.5074 -2.3248 -0.0143 0 -30 0 0
0.5305 -2.3251 -0.0139 0 -30 0 0
0.5432 -2.3249 -0.0160 0 -30 0 0
0.5389 -2.3244 -0.0166 0 -30 0 0
0.5158 -2.3241 -0.0161 0 -30 0 0
0.5326 -2.3242 -0.0178 0 -30 0 0
0.5242 -2.3244 -0.0170 0 -30 0 0
0.5137 -2.3244 -0.0171 0 -30 0 0
0.5137 -2.3244 -0.0171 0 -30 0 0
0.5074 -2.3246 -0.0160 0 -30 0 0
0.5432 -2.3242 -0.0172 0 -30 0 0
0.5558 -2.3237 -0.0166 0 -30 0 0
0.5558 -2.3237 -0.0166 0 -30 0 0
0.5263 -2.3235 -0.0161 0 -30 0 0
0.5263 -2.3235 -0.0161 0 -30 0 0
0.5200 -2.3236 -0.0189 0 -30 0 0
0.5411 -2.3246 -0.0198 0 -30 0 0
0.5326 -2.3246 -0.0193 0 -30 0 0
0.5263 -2.3246 -0.0193 0 -30 0 0
0.5200 -2.3248 -0.0213 0 -30 0 0
0.5347 -2.3246 -0.0196 0 -30 0 0
0.5221 -2.3244 -0.0186 0 -30 0 0
0.5221 -2.3244 -0.0186 0 -30 0 0
0.5242 -2.3246 -0.0158 0 -30 0 0
0.5347 -2.3249 -0.0136 0 -30 0 0
0.5347 -2.3255 -0.0129 0 -30 0 0
0.5474 -2.3260 -0.0141 0 -30 0 0
0.5284 -2.3260 -0.0134 0 -30 0 0
0.5284 -2.3260 -0.0134 0 -30 0 0
0.5137 -2.3253 -0.0132 0 -30 0 0
0.5053 -2.3248 -0.0127 0 -30 0 0
0.5053 -2.3248 -0.0127 0 -30 0 0
0.4989 -2.3244 -0.0120 0 -30 0 0
0.5137 -2.3253 -0.0110 0 -30 0 0
0.5137 -2.3253 -0.0110 0 -30 0 0
0.5074 -2.3259 -0.0107 0 -30 0 0
0.4884 -2.3262 -0.0105 0 -30 0 0
0.5095 -2.3256 -0.0106 0 -30 0 0
0.5221 -2.3244 -0.0102 0 -30 0 0
0.5221 -2.3244 -0.0102 0 -30 0 0
0.4989 -2.3242 -0.0100 0 -30 0 0
0.5074 -2.3242 -0.0100 0 -30 0 0
0.5116 -2.3242 -0.0082 0 -30 0 0
0.5074 -2.3243 -0.0086 0 -30 0 0
0.5158 -2.3240 -0.0106 0 -30 0 0
0.5179 -2.3239 -0.0107 0 -30 0 0
0.5179 -2.3239 -0.0107 0 -30 0 0
0.4947 -2.3234 -0.0101 0 -30 0 0
0.4947 -2.3234 -0.0101 0 -30 0 0
0.5074 -2.3239 -0.0101 0 -30 0 0
0.5074 -2.3239 -0.0101 0 -30 0 0
0.5158 -2.3248 -0.0104 0 -30 0 0
0.5158 -2.3248 -0.0104 0 -30 0 0
0.5074 -2.3251 -0.0149 0 -30 0 0
0.5200 -2.3253 -0.0144 0 -30 0 0
0.5158 -2.3256 -0.0138 0 -30 0 0
0.5158 -2.3256 -0.0138 0 -30 0 0
0.5137 -2.3257 -0.0127 0 -30 0 0
0.5137 -2.3257 -0.0127 0 0 0 0
0.5095 -2.3258 -0.0027 0 -30 0 0
0.5053 -2.3256 -0.0008 0 -30 0 0
0.5053 -2.3256 -0.0012 0 -30 0 0
0.5305 -2.3256 -0.0012 0 -30 0 0
0.4989 -2.3253 -0.0022 0 -30 0 0
0.5032 -2.3248 -0.0023 0 -30 0 0
0.5158 -2.3247 -0.0019 0 -30 0 0
0.5389 -2.3247 -0.0017 0 -30 0 0
0.5179 -2.3243 0.0009 0 -30 0 0
0.5305 -2.3235 0.0014 0 -30 0 0
0.5305 -2.3235 0.0014 0 -30 0 0
0.5326 -2.3239 0.0032 0 -30 0 0
0.5326 -2.3239 0.0032 0 -30 0 0
0.5326 -2.3241 0.0039 0 -30 0 0
0.5242 -2.3238 0.0049 0 -30 0 0
0.5242 -2.3238 0.0049 0 -30 0 0
0.5158 -2.3234 0.0057 0 -30 0 0
0.5347 -2.3235 0.0069 0 -30 0 0
0.5453 -2.3234 0.0086 0 -30 0 0
0.5453 -2.3238 0.0092 0 -30 0 0
0.5411 -2.3238 0.0092 0 -30 0 0
0.5221 -2.3239 0.0070 0 -30 0 0
0.5326 -2.3240 0.0070 0 -30 0 0
0.5326 -2.3242 0.0050 0 -30 0 0
0.5326 -2.3242 0.0050 0 -30 0 0
0.5095 -2.3244 0.0047 0 -30 0 0
0.5116 -2.3247 0.0045 0 -30 0 0
0.5263 -2.3247 0.0041 0 -30 0 0
0.5263 -2.3247 0.0041 0 -30 0 0
0.5474 -2.3248 0.0028 0 -30 0 0
0.5284 -2.3246 0.0015 0 -30 0 0
0.5158 -2.3245 0.0015 0 -30 0 0
0.5095 -2.3246 0.0016 0 -30 0 0
0.5284 -2.3244 0.0013 0 -30 0 0
0.5284 -2.3244 0.0013 0 -30 0 0
0.5368 -2.3235 0.0068 0 -30 0 0
0.5158 -2.3236 0.0057 0 -30 0 0
0.5200 -2.3239 0.0058 0 -30 0 0
0.5200 -2.3239 0.0058 0 -30 0 0
0.5158 -2.3244 0.0034 0 -30 0 0
0.5263 -2.3253 0.0034 0 -30 0 0
0.5116 -2.3257 0.0012 0 -30 0 0
0.5389 -2.3253 0.0009 0 -30 0 0
0.5389 -2.3249 0.0006 0 -30 0 0
0.5432 -2.3249 0.0006 0 -30 0 0
0.5305 -2.3246 0.0003 0 -30 0 0
0.5326 -2.3245 -0.0011 0 -30 0 0
0.5474 -2.3249 -0.0013 0 -30 0 0
0.5474 -2.3249 -0.0013 0 -30 0 0
0.5305 -2.3251 -0.0026 0 -30 0 0
0.5326 -2.3251 -0.0034 0 -30 0 0
0.5263 -2.3253 -0.0030 0 -30 0 0
0.5453 -2.3253 0.0001 0 -30 0 0
0.5453 -2.3253 0.0001 0 -30 0 0
0.5326 -2.3251 0.0000 0 -30 0 0
0.5368 -2.3247 -0.0018 0 -30 0 0
0.5558 -2.3241 -0.0012 0 -30 0 0
0.5579 -2.3241 -0.0011 0 -30 0 0
0.5579 -2.3244 -0.0008 0 -30 0 0
0.5537 -2.3244 -0.0008 0 -30 0 0
0.5389 -2.3248 -0.0007 0 -30 0 0
0.5389 -2.3250 -0.0007 0 -30 0 0
0.5368 -2.3249 0.0004 0 -30 0 0
0.5347 -2.3248 0.0001 0 -30 0 0
0.5474 -2.3249 -0.0016 0 -30 0 0
0.5474 -2.3249 -0.0016 0 -30 0 0
0.5705 -2.3251 -0.0027 0 -30 0 0
0.5684 -2.3255 -0.0026 0 -30 0 0
0.5305 -2.3258 -0.0023 0 -30 0 0
0.5432 -2.3265 -0.0015 0 -30 0 0
0.5432 -2.3262 0.0000 0 -30 0 0
0.5516 -2.3256 0.0004 0 -30 0 0
0.5726 -2.3252 0.0010 0 -30 0 0
0.5726 -2.3252 0.0010 0 -30 0 0
0.5516 -2.3250 0.0018 0 -30 0 0
0.5558 -2.3253 0.0016 0 -30 0 0
0.5558 -2.3253 0.0016 0 -30 0 0
0.5600 -2.3254 -0.0017 0 -30 0 0
0.5347 -2.3251 -0.0016 0 -30 0 0
0.5347 -2.3251 -0.0016 0 -30 0 0
0.5474 -2.3250 -0.0041 0 -30 0 0
0.5579 -2.3246 -0.0037 0 -30 0 0
0.5516 -2.3244 -0.0048 0 -30 0 0
0.5389 -2.3246 -0.0046 0 -30 0 0
0.5389 -2.3246 -0.0046 0 -30 0 0
0.5474 -2.3246 -0.0023 0 -30 0 0
0.5579 -2.3244 -0.0020 0 -30 0 0
0.5663 -2.3246 -0.0020 0 -30 0 0
0.5642 -2.3246 -0.0004 0 -30 0 0
0.5642 -2.3246 -0.0004 0 -30 0 0
0.5768 -2.3245 -0.0007 0 -30 0 0
0.5768 -2.3250 -0.0006 0 -30 0 0
0.5789 -2.3250 -0.0006 0 -30 0 0
0.5642 -2.3256 0.0001 0 -30 0 0
0.5516 -2.3259 0.0003 0 -30 0 0
0.5579 -2.3258 -0.0006 0 -30 0 0
0.5579 -2.3258 -0.0006 0 -30 0 0
0.5368 -2.3252 0.0026 0 -30 0 0
0.5368 -2.3252 0.0026 0 -30 0 0
0.5789 -2.3249 0.0027 0 -30 0 0
0.5642 -2.3240 0.0063 0 -30 0 0
0.5705 -2.3242 0.0065 0 -30 0 0
0.5705 -2.3242 0.0065 0 -30 0 0
0.5726 -2.3247 0.0075 0 -30 0 0
0.5726 -2.3248 0.0073 0 -30 0 0
0.5705 -2.3249 0.0059 0 -30 0 0
0.5705 -2.3249 0.0059 0 -30 0 0
0.5874 -2.3256 0.0053 0 -30 0 0
0.5874 -2.3256 0.0053 0 -30 0 0
0.5705 -2.3258 0.0050 0 -30 0 0
0.5768 -2.3249 0.0076 0 -30 0 0
0.5768 -2.3249 0.0076 0 -30 0 0
0.5937 -2.3247 0.0083 0 -30 0 0
0.5937 -2.3244 0.0082 0 -30 0 0
0.5979 -2.3247 0.0085 0 -30 0 0
0.6084 -2.3247 0.0083 0 -30 0 0
0.6084 -2.3247 0.0083 0 -30 0 0
0.6000 -2.3246 0.0091 0 -30 0 0
0.5979 -2.3248 0.0122 0 -30 0 0
0.5937 -2.3249 0.0121 0 -30 0 0
0.5937 -2.3249 0.0121 0 -30 0 0
0.5979 -2.3251 0.0130 0 -30 0 0
0.5958 -2.3255 0.0127 0 -30 0 0
0.5958 -2.3257 0.0124 0 -30 0 0
0.5958 -2.3257 0.0124 0 -30 0 0
0.5895 -2.3254 0.0110 0 -30 0 0
0.5958 -2.3250 0.0113 0 -30 0 0
0.5958 -2.3250 0.0113 0 -30 0 0
0.5853 -2.3248 0.0104 0 -30 0 0
0.6021 -2.3245 0.0100 0 -30 0 0
0.6189 -2.3247 0.0098 0 -30 0 0
0.6189 -2.3247 0.0098 0 -30 0 0
0.6105 -2.3253 0.0093 0 -30 0 0
0.6105 -2.3253 0.0093 0 -30 0 0
0.6253 -2.3249 0.0085 0 -30 0 0
0.6253 -2.3249 0.0085 0 -30 0 0
0.6211 -2.3245 0.0072 0 -30 0 0
0.6063 -2.3245 0.0060 0 -30 0 0
0.6063 -2.3245 0.0060 0 -30 0 0
0.6337 -2.3245 0.0070 0 -30 0 0
0.6147 -2.3245 0.0073 0 -30 0 0
0.6274 -2.3246 0.0075 0 -30 0 0
0.6274 -2.3246 0.0075 0 -30 0 0
0.6253 -2.3251 0.0075 0 -30 0 0
0.6316 -2.3251 0.0078 0 -30 0 0
0.6358 -2.3252 0.0080 0 -30 0 0
0.6358 -2.3255 0.0082 0 -30 0 0
0.6274 -2.3254 0.0079 0 -30 0 0
0.6274 -2.3254 0.0079 0 -30 0 0
0.6274 -2.3254 0.0089 0 -30 0 0
0.6147 -2.3257 0.0077 0 -30 0 0
0.6274 -2.3257 0.0070 0 -30 0 0
0.6021 -2.3253 0.0105 0 -30 0 0
0.6021 -2.3253 0.0105 0 -30 0 0
0.6126 -2.3249 0.0142 0 -30 0 0
0.6126 -2.3249 0.0142 0 -30 0 0
0.6063 -2.3251 0.0148 0 -30 0 0
0.6189 -2.3251 0.0195 0 -30 0 0
0.6189 -2.3253 0.0191 0 -30 0 0
0.6189 -2.3253 0.0191 0 -30 0 0
0.5979 -2.3252 0.0231 0 -30 0 0
0.6105 -2.3248 0.0213 0 -30 0 0
0.6147 -2.3245 0.0207 0 -30 0 0
0.6000 -2.3249 0.0208 0 -30 0 0
0.6084 -2.3252 0.0209 0 -30 0 0
0.6189 -2.3252 0.0209 0 -30 0 0
0.6084 -2.3250 0.0247 0 -30 0 0
0.6084 -2.3250 0.0247 0 -30 0 0
0.6295 -2.3250 0.0281 0 -30 0 0
0.6295 -2.3250 0.0281 0 -30 0 0
0.6063 -2.3251 0.0318 0 -30 0 0
0.6042 -2.3251 0.0315 0 -30 0 0
0.6021 -2.3245 0.0350 0 -30 0 0
0.5958 -2.3240 0.0349 0 -30 0 0
0.5958 -2.3240 0.0349 0 -30 0 0
0.6211 -2.3242 0.0336 0 -30 0 0
0.6189 -2.3246 0.0345 0 -30 0 0
0.6189 -2.3246 0.0345 0 -30 0 0
0.6189 -2.3247 0.0328 0 -30 0 0
0.6189 -2.3247 0.0328 0 -30 0 0
0.6105 -2.3243 0.0303 0 -30 0 0
0.6105 -2.3243 0.0303 0 -30 0 0
0.6147 -2.3240 0.0302 0 -30 0 0
0.5979 -2.3239 0.0302 0 -30 0 0
0.6105 -2.3244 0.0341 0 -30 0 0
0.6105 -2.3250 0.0333 0 -30 0 0
0.6253 -2.3252 0.0344 0 -30 0 0
0.6021 -2.3246 0.0334 0 -30 0 0
0.6021 -2.3246 0.0334 0 -30 0 0
0.6189 -2.3248 0.0321 0 -30 0 0
0.6168 -2.3248 0.0330 0 -30 0 0
0.6547 -2.3252 0.0313 0 -30 0 0
0.6274 -2.3258 0.0316 0 -30 0 0
0.6274 -2.3258 0.0316 0 -30 0 0
0.6105 -2.3260 0.0280 0 -30 0 0
0.6316 -2.3254 0.0274 0 -30 0 0
0.6126 -2.3249 0.0266 0 -30 0 0
0.6358 -2.3248 0.0269 0 -30 0 0
0.6358 -2.3248 0.0269 0 -30 0 0
0.6253 -2.3249 0.0267 0 -30 0 0
0.6274 -2.3253 0.0272 0 -30 0 0
0.6358 -2.3248 0.0264 0 -30 0 0
0.6358 -2.3248 0.0264 0 -30 0 0
0.6379 -2.3242 0.0262 0 -30 0 0
0.6021 -2.3241 0.0253 0 -30 0 0
0.6379 -2.3241 0.0228 0 -30 0 0
0.6632 -2.3247 0.0227 0 -30 0 0
0.6632 -2.3247 0.0227 0 -30 0 0
0.6316 -2.3250 0.0221 0 -30 0 0
0.6358 -2.3256 0.0214 0 -30 0 0
0.6547 -2.3257 0.0245 0 -30 0 0
0.6295 -2.3255 0.0243 0 -30 0 0
0.6295 -2.3255 0.0243 0 -30 0 0
0.6463 -2.3254 0.0233 0 -30 0 0
0.6253 -2.3246 0.0228 0 -30 0 0
0.6337 -2.3242 0.0198 0 -30 0 0
0.5979 -2.3240 0.0191 0 -30 0 0
0.5979 -2.3240 0.0191 0 -30 0 0
0.6358 -2.3241 0.0195 0 -30 0 0
0.6379 -2.3244 0.0181 0 -30 0 0
0.6400 -2.3246 0.0174 0 -30 0 0
0.6379 -2.3246 0.0166 0 -30 0 0
0.6379 -2.3246 0.0166 0 -30 0 0
0.6316 -2.3248 0.0160 0 0 0 0
0.6400 -2.3253 0.0167 0 0 0 -30
0.6189 -2.3249 0.0177 0 0 0 -30
0.6189 -2.3249 0.0177 0 0 0 -30
0.6232 -2.3242 0.0172 0 0 0 -30
0.6568 -2.3242 0.0161 0 0 0 0
0.6337 -2.3243 0.0158 0 0 0 -30
0.6189 -2.3254 0.0147 0 0 0 -30
0.6337 -2.3252 0.0133 0 0 0 -30
0.6484 -2.3246 0.0116 0 0 0 -30
0.6337 -2.3244 0.0107 0 0 0 -30
0.6337 -2.3244 0.0107 0 0 0 0
0.6484 -2.3242 0.0088 0 -30 0 0
0.6505 -2.3237 0.0070 0 -30 0 0
0.6316 -2.3236 0.0045 0 -30 0 0
0.6316 -2.3236 0.0045 0 -30 0 0
0.6442 -2.3235 0.0037 0 -30 0 0
0.6421 -2.3239 0.0039 0 -30 0 0
0.6337 -2.3239 0.0031 0 -30 0 0
0.6337 -2.3239 0.0031 0 -30 0 0
0.6442 -2.3242 0.0024 0 -30 0 0
0.6632 -2.3245 0.0017 0 -30 0 0
0.6379 -2.3244 0.0034 0 -30 0 0
0.6526 -2.3245 0.0026 0 -30 0 0
0.6568 -2.3244 0.0016 0 -30 0 0
0.6421 -2.3242 -0.0004 0 -30 0 0
0.6421 -2.3242 -0.0004 0 -30 0 0
0.6547 -2.3242 -0.0008 0 -30 0 0
0.6379 -2.3240 -0.0024 0 -30 0 0
0.6253 -2.3240 -0.0026 0 -30 0 0
0.6274 -2.3242 -0.0017 0 -30 0 0
0.6274 -2.3242 -0.0017 0 -30 0 0
0.6168 -2.3244 -0.0016 0 -30 0 0
0.6337 -2.3243 -0.0026 0 -30 0 0
0.6232 -2.3243 -0.0026 0 -30 0 0
0.6232 -2.3236 -0.0024 0 -30 0 0
0.6253 -2.3236 -0.0025 0 -30 0 0
0.6253 -2.3236 -0.0025 0 -30 0 0
0.6337 -2.3233 -0.0030 0 -30 0 0
0.6337 -2.3233 -0.0030 0 -30 0 0
0.6189 -2.3232 -0.0030 0 -30 0 0
0.6189 -2.3232 -0.0030 0 -30 0 0
0.6400 -2.3229 -0.0050 0 -30 0 0
0.6379 -2.3228 -0.0040 0 -30 0 0
0.6274 -2.3227 -0.0046 0 -30 0 0
0.6274 -2.3227 -0.0046 0 -30 0 0
0.6316 -2.3230 -0.0054 0 -30 0 0
0.6316 -2.3230 -0.0054 0 -30 0 0
0.6253 -2.3230 -0.0056 0 -30 0 0
0.6358 -2.3231 -0.0074 0 -30 0 0
0.6147 -2.3232 -0.0074 0 -30 0 0
0.6147 -2.3232 -0.0074 0 -30 0 0
0.6105 -2.3232 -0.0081 0 -30 0 0
0.6147 -2.3233 -0.0079 0 -30 0 0
0.5958 -2.3235 -0.0096 0 -30 0 0
0.5958 -2.3235 -0.0096 0 -30 0 0
0.6126 -2.3233 -0.0093 0 -30 0 0
0.6147 -2.3230 -0.0096 0 -30 0 0
0.6211 -2.3230 -0.0098 0 -30 0 0
0.6211 -2.3230 -0.0098 0 -30 0 0
0.5937 -2.3230 -0.0100 0 -30 0 0
0.6084 -2.3225 -0.0099 0 -30 0 0
0.6189 -2.3224 -0.0104 0 -30 0 0
0.6232 -2.3224 -0.0108 0 -30 0 0
0.6232 -2.3225 -0.0109 0 -30 0 0
0.6232 -2.3225 -0.0109 0 -30 0 0
0.6253 -2.3229 -0.0131 0 -30 0 0
0.6253 -2.3229 -0.0131 0 -30 0 0
0.6021 -2.3234 -0.0136 0 -30 0 0
0.6021 -2.3232 -0.0150 0 -30 0 0
0.6063 -2.3232 -0.0145 0 -30 0 0
0.6063 -2.3232 -0.0145 0 -30 0 0
0.6000 -2.3230 -0.0157 0 -30 0 0
0.6000 -2.3224 -0.0148 0 -30 0 0
0.6000 -2.3219 -0.0165 0 -30 0 0
0.6000 -2.3219 -0.0165 0 -30 0 0
0.5768 -2.3221 -0.0161 0 -30 0 0
0.5811 -2.3226 -0.0177 0 -30 0 0
0.5768 -2.3228 -0.0178 0 -30 0 0
0.5768 -2.3228 -0.0178 0 -30 0 0
0.5768 -2.3225 -0.0196 0 -30 0 0
0.5874 -2.3225 -0.0193 0 -30 0 0
0.5811 -2.3228 -0.0189 0 -30 0 0
0.5600 -2.3229 -0.0176 0 -30 0 0
0.5621 -2.3226 -0.0170 0 -30 0 0
0.5621 -2.3226 -0.0170 0 -30 0 0
0.5474 -2.3224 -0.0156 0 -30 0 0
0.5411 -2.3220 -0.0154 0 -30 0 0
0.5916 -2.3220 -0.0179 0 -30 0 0
0.5916 -2.3220 -0.0179 0 -30 0 0
0.5579 -2.3222 -0.0166 0 -30 0 0
0.5579 -2.3222 -0.0166 0 -30 0 0
0.5516 -2.3220 -0.0122 0 -30 0 0
0.5368 -2.3220 -0.0121 0 -30 0 0
0.5642 -2.3221 -0.0116 0 -30 0 0
0.5642 -2.3221 -0.0116 0 -30 0 0
0.5726 -2.3221 -0.0112 0 -30 0 0
0.5663 -2.3226 -0.0096 0 -30 0 0
0.5537 -2.3228 -0.0092 0 -30 0 0
0.5726 -2.3227 -0.0068 0 -30 0 0
0.5726 -2.3227 -0.0068 0 -30 0 0
0.5726 -2.3226 -0.0071 0 -30 0 0
0.5537 -2.3225 -0.0096 0 -30 0 0
0.5621 -2.3223 -0.0108 0 -30 0 0
0.5411 -2.3226 -0.0109 0 -30 0 0
0.5411 -2.3225 -0.0110 0 -30 0 0
0.5411 -2.3225 -0.0110 0 -30 0 0
0.5432 -2.3227 -0.0110 0 -30 0 0
0.5726 -2.3229 -0.0118 0 -30 0 0
0.5726 -2.3229 -0.0118 0 -30 0 0
0.5263 -2.3233 -0.0140 0 -30 0 0
0.5432 -2.3237 -0.0136 0 -30 0 0
0.5432 -2.3237 -0.0136 0 -30 0 0
0.5537 -2.3239 -0.0140 0 -30 0 0
0.5305 -2.3240 -0.0126 0 -30 0 0
0.5432 -2.3235 -0.0125 0 -30 0 0
0.5242 -2.3229 -0.0092 0 -30 0 0
0.5116 -2.3226 -0.0097 0 -30 0 0
0.5411 -2.3226 -0.0097 0 -30 0 0
0.5411 -2.3226 -0.0097 0 -30 0 0
0.5326 -2.3228 -0.0087 0 -30 0 0
0.5305 -2.3237 -0.0087 0 -30 0 0
0.5158 -2.3242 -0.0110 0 -30 0 0
0.5242 -2.3243 -0.0116 0 -30 0 0
0.5242 -2.3243 -0.0116 0 -30 0 0
0.5116 -2.3239 -0.0114 0 -30 0 0
0.5116 -2.3239 -0.0114 0 -30 0 0
0.5305 -2.3238 -0.0109 0 -30 0 0
0.5116 -2.3235 -0.0089 0 -30 0 0
0.5116 -2.3235 -0.0089 0 -30 0 0
0.5368 -2.3239 -0.0093 0 -30 0 0
0.5326 -2.3239 -0.0094 0 -30 0 0
0.5305 -2.3236 -0.0095 0 -30 0 0
0.5411 -2.3231 -0.0085 0 -30 0 0
0.5411 -2.3231 -0.0085 0 -30 0 0
0.5326 -2.3231 -0.0086 0 -30 0 0
0.5137 -2.3235 -0.0063 0 -30 0 0
0.5095 -2.3241 -0.0067 0 0 0 0
0.5389 -2.3246 -0.0039 30 0 0 0
0.5326 -2.3227 -0.0042 30 0 0 0
0.5347 -2.3227 -0.0049 30 0 0 0
0.5558 -2.3220 -0.0044 30 0 0 0
0.5558 -2.3220 -0.0044 30 0 0 0
0.5579 -2.3220 -0.0017 30 0 0 0
0.5663 -2.3221 -0.0020 30 0 0 0
0.5474 -2.3224 -0.0006 30 0 0 0
0.5537 -2.3226 -0.0006 30 0 0 0
0.5537 -2.3226 -0.0006 30 0 0 0
0.5411 -2.3228 0.0015 30 0 0 0
0.5368 -2.3230 0.0017 30 0 0 0
0.5326 -2.3230 0.0002 30 0 0 0
0.5495 -2.3242 -0.0016 30 0 0 0
0.5495 -2.3242 -0.0016 30 0 0 0
0.5284 -2.3244 -0.0030 30 0 0 0
0.5368 -2.3240 -0.0033 30 0 0 0
0.5221 -2.3235 -0.0035 30 0 0 0
0.5326 -2.3236 -0.0042 30 0 0 0
0.5326 -2.3236 -0.0042 30 0 0 0
0.5221 -2.3237 -0.0044 30 0 0 0
0.5200 -2.3237 -0.0052 30 0 0 0
0.5453 -2.3235 -0.0045 30 0 0 0
0.5305 -2.3237 -0.0047 30 0 0 0
0.5305 -2.3237 -0.0047 30 0 0 0
0.5558 -2.3242 -0.0059 30 0 0 0
0.5432 -2.3245 -0.0063 30 0 0 0
0.5453 -2.3246 -0.0056 30 0 0 0
0.5495 -2.3249 -0.0058 30 0 0 0
0.5495 -2.3249 -0.0058 30 0 0 0
0.5326 -2.3246 -0.0072 30 0 0 0
0.5389 -2.3241 -0.0076 30 0 0 0
0.5347 -2.3238 -0.0073 30 0 0 0
0.5347 -2.3238 -0.0073 30 0 0 0
0.5411 -2.3241 -0.0071 30 0 0 0
0.5600 -2.3245 -0.0070 30 0 0 0
0.5747 -2.3251 -0.0068 30 0 0 0
0.5579 -2.3251 -0.0072 30 0 0 0
0.5579 -2.3251 -0.0072 30 0 0 0
0.5368 -2.3251 -0.0095 30 0 0 0
0.5284 -2.3250 -0.0095 30 0 0 0
0.5284 -2.3250 -0.0095 30 0 0 0
0.5305 -2.3246 -0.0095 30 0 0 0
0.5074 -2.3245 -0.0097 30 0 0 0
0.5074 -2.3245 -0.0097 30 0 0 0
0.5579 -2.3251 -0.0098 30 0 0 0
0.5347 -2.3253 -0.0097 30 0 0 0
0.5116 -2.3251 -0.0097 30 0 0 0
0.5558 -2.3249 -0.0100 30 0 0 0
0.5558 -2.3249 -0.0100 30 0 0 0
0.5347 -2.3251 -0.0096 30 0 0 0
0.5158 -2.3256 -0.0096 30 0 0 0
0.5158 -2.3256 -0.0096 30 0 0 0
0.5221 -2.3259 -0.0100 30 0 0 0
0.5368 -2.3258 -0.0103 30 0 0 0
0.5221 -2.3255 -0.0102 30 0 0 0
0.5221 -2.3255 -0.0102 30 0 0 0
0.5284 -2.3249 -0.0104 30 0 0 0
0.5453 -2.3245 -0.0105 30 0 0 0
0.5074 -2.3246 -0.0102 30 0 0 0
0.5284 -2.3250 -0.0097 30 0 0 0
0.5432 -2.3257 -0.0070 30 0 0 0
0.5263 -2.3262 -0.0064 30 0 0 0
0.5263 -2.3262 -0.0064 30 0 0 0
0.5263 -2.3262 -0.0064 30 0 0 0
0.5495 -2.3262 -0.0060 30 0 0 0
0.5284 -2.3260 -0.0055 30 0 0 0
0.5284 -2.3260 -0.0055 30 0 0 0
0.5305 -2.3259 -0.0044 30 0 0 0
0.5474 -2.3256 -0.0055 30 0 0 0
0.5347 -2.3255 -0.0034 30 0 0 0
0.5347 -2.3255 -0.0034 30 0 0 0
0.5242 -2.3252 -0.0020 30 0 0 0
0.5242 -2.3252 -0.0020 30 0 0 0
0.5263 -2.3253 -0.0018 30 0 0 0
0.5432 -2.3265 -0.0008 30 0 0 0
0.5242 -2.3266 -0.0002 30 0 0 0
0.5516 -2.3267 0.0009 30 0 0 0
0.5516 -2.3267 0.0009 30 0 0 0
0.5368 -2.3267 0.0007 30 0 0 0
0.5284 -2.3263 0.0003 30 0 0 0
0.5453 -2.3260 0.0010 30 0 0 0
0.5453 -2.3260 0.0010 30 0 0 0
0.5558 -2.3255 0.0041 30 0 0 0
0.5368 -2.3254 0.0031 30 0 0 0
0.5684 -2.3250 0.0036 30 0 0 0
0.5726 -2.3246 0.0047 30 0 0 0
0.5663 -2.3245 0.0044 30 0 0 0
0.5768 -2.3245 0.0042 30 0 0 0
0.5768 -2.3245 0.0042 30 0 0 0
0.5853 -2.3242 0.0047 30 0 0 0
0.5705 -2.3242 0.0041 30 0 0 0
0.5705 -2.3242 0.0041 30 0 0 0
0.5747 -2.3243 0.0039 30 0 0 0
0.5853 -2.3242 0.0039 30 0 0 0
0.5768 -2.3238 0.0046 30 0 0 0
0.5853 -2.3235 0.0039 30 0 0 0
0.5832 -2.3237 0.0006 30 0 0 0
0.5937 -2.3241 -0.0008 30 0 0 0
0.5937 -2.3241 -0.0008 30 0 0 0
0.6042 -2.3245 -0.0011 30 0 0 0
0.5811 -2.3248 0.0005 30 0 0 0
0.5937 -2.3248 0.0005 30 0 0 0
0.5937 -2.3248 0.0005 30 0 0 0
0.5874 -2.3253 0.0013 30 0 0 0
0.6105 -2.3250 0.0007 30 0 0 0
0.6021 -2.3248 0.0009 30 0 0 0
0.6021 -2.3248 0.0009 30 0 0 0
0.5895 -2.3248 -0.0002 30 0 0 0
0.6021 -2.3249 0.0005 30 0 0 0
0.5811 -2.3249 0.0005 30 0 0 0
0.5705 -2.3254 0.0005 30 0 0 0
0.5705 -2.3254 0.0005 30 0 0 0
0.5916 -2.3251 0.0016 30 0 0 0
0.5832 -2.3250 0.0007 30 0 0 0
0.6000 -2.3251 0.0009 30 0 0 0
0.6000 -2.3251 0.0009 30 0 0 0
0.5958 -2.3248 -0.0003 0 0 0 0
0.5937 -2.3244 -0.0029 0 -30 0 0
0.6042 -2.3244 -0.0043 0 -30 0 0
0.5895 -2.3250 -0.0042 0 -30 0 0
0.5895 -2.3250 -0.0042 0 -30 0 0
0.5979 -2.3257 -0.0052 0 -30 0 0
0.5832 -2.3257 -0.0084 0 -30 0 0
0.5832 -2.3253 -0.0090 0 -30 0 0
0.6063 -2.3253 -0.0090 0 -30 0 0
0.6042 -2.3260 -0.0090 0 -30 0 0
0.6042 -2.3260 -0.0090 0 -30 0 0
0.6295 -2.3263 -0.0073 0 -30 0 0
0.6358 -2.3262 -0.0072 0 -30 0 0
0.6211 -2.3262 -0.0028 0 -30 0 0
0.6211 -2.3262 -0.0028 0 -30 0 0
0.6126 -2.3260 -0.0032 0 -30 0 0
0.6105 -2.3259 -0.0061 0 -30 0 0
0.6232 -2.3257 -0.0063 0 -30 0 0
0.6232 -2.3257 -0.0063 0 -30 0 0
0.6211 -2.3260 -0.0062 0 -30 0 0
0.6189 -2.3258 -0.0062 0 -30 0 0
0.6042 -2.3258 -0.0062 0 -30 0 0
0.6084 -2.3258 -0.0073 0 -30 0 0
0.6084 -2.3258 -0.0073 0 -30 0 0
0.6232 -2.3258 -0.0079 0 -30 0 0
0.6316 -2.3261 -0.0079 0 -30 0 0
0.6232 -2.3260 -0.0082 0 -30 0 0
0.6442 -2.3249 -0.0106 0 -30 0 0
0.6442 -2.3249 -0.0106 0 -30 0 0
0.6442 -2.3248 -0.0145 0 -30 0 0
0.5937 -2.3253 -0.0147 0 -30 0 0
0.5937 -2.3256 -0.0141 0 -30 0 0
0.6000 -2.3256 -0.0142 0 -30 0 0
0.6000 -2.3256 -0.0142 0 -30 0 0
0.6147 -2.3251 -0.0139 0 -30 0 0
0.6147 -2.3251 -0.0139 0 -30 0 0
0.5979 -2.3244 -0.0133 0 -30 0 0
0.6063 -2.3244 -0.0130 0 -30 0 0
0.5916 -2.3242 -0.0131 0 -30 0 0
0.5916 -2.3242 -0.0131 0 -30 0 0
0.6105 -2.3240 -0.0130 0 -30 0 0
0.6126 -2.3244 -0.0131 0 -30 0 0
0.6168 -2.3248 -0.0124 0 -30 0 0
0.6168 -2.3248 -0.0124 0 -30 0 0
0.6168 -2.3248 -0.0117 0 -30 0 0
0.6063 -2.3248 -0.0096 0 -30 0 0
0.6063 -2.3248 -0.0096 0 -30 0 0
0.6211 -2.3246 -0.0088 0 -30 0 0
0.6000 -2.3247 -0.0077 0 -30 0 0
0.6274 -2.3258 -0.0070 0 -30 0 0
0.6063 -2.3261 -0.0113 0 -30 0 0
0.6295 -2.3267 -0.0111 0 -30 0 0
0.6000 -2.3263 -0.0091 0 -30 0 0
0.6000 -2.3263 -0.0091 0 -30 0 0
0.5768 -2.3262 -0.0094 0 -30 0 0
0.6105 -2.3255 -0.0086 0 -30 0 0
0.6211 -2.3252 -0.0077 0 -30 0 0
0.6253 -2.3251 -0.0105 0 -30 0 0
0.6211 -2.3248 -0.0103 0 -30 0 0
0.6084 -2.3243 -0.0141 0 -30 0 0
0.5937 -2.3240 -0.0153 0 -30 0 0
0.5937 -2.3241 -0.0161 0 -30 0 0
0.6000 -2.3241 -0.0161 0 0 0 0
0.6168 -2.3245 -0.0197 30 0 0 0
0.5642 -2.3237 -0.0151 30 0 0 0
0.5937 -2.3227 -0.0149 30 0 0 0
0.5937 -2.3227 -0.0149 30 0 0 0
0.6168 -2.3228 -0.0146 30 0 0 0
0.6000 -2.3238 -0.0152 30 0 0 0
0.5853 -2.3246 -0.0154 30 0 0 0
0.5663 -2.3249 -0.0159 30 0 0 0
0.5663 -2.3249 -0.0159 30 0 0 0
0.5895 -2.3248 -0.0165 30 0 0 0
0.6063 -2.3248 -0.0176 30 0 0 0
0.5937 -2.3251 -0.0177 0 0 0 0
0.5642 -2.3253 -0.0228 30 0 0 0
0.5768 -2.3256 -0.0210 30 0 0 0
0.5705 -2.3257 -0.0208 30 0 0 0
0.5811 -2.3258 -0.0208 30 0 0 0
0.5811 -2.3258 -0.0208 30 0 0 0
0.5705 -2.3258 -0.0195 0 0 0 0
0.5853 -2.3262 -0.0201 0 -30 0 0
0.6000 -2.3250 -0.0199 0 -30 0 0
0.5958 -2.3249 -0.0193 0 -30 0 0
0.5958 -2.3249 -0.0193 0 -30 0 0
0.5979 -2.3249 -0.0193 0 -30 0 0
0.5853 -2.3248 -0.0189 0 -30 0 0
0.6021 -2.3244 -0.0192 0 -30 0 0
0.5853 -2.3247 -0.0189 0 -30 0 0
0.5853 -2.3247 -0.0189 0 -30 0 0
0.6126 -2.3249 -0.0203 0 -30 0 0
0.5958 -2.3257 -0.0222 0 -30 0 0
0.6084 -2.3258 -0.0217 0 -30 0 0
0.5937 -2.3247 -0.0192 0 -30 0 0
0.5937 -2.3249 -0.0184 0 -30 0 0
0.5874 -2.3249 -0.0184 0 -30 0 0
0.6084 -2.3256 -0.0187 0 -30 0 0
0.6168 -2.3258 -0.0183 0 -30 0 0
0.6063 -2.3256 -0.0180 0 -30 0 0
0.6063 -2.3256 -0.0180 0 -30 0 0
0.6295 -2.3248 -0.0146 0 -30 0 0
0.6168 -2.3244 -0.0146 0 -30 0 0
0.6253 -2.3242 -0.0114 0 -30 0 0
0.6274 -2.3240 -0.0114 0 -30 0 0
0.6400 -2.3244 -0.0147 0 -30 0 0
0.6442 -2.3241 -0.0143 0 -30 0 0
0.6442 -2.3241 -0.0143 0 -30 0 0
0.6421 -2.3243 -0.0186 0 -30 0 0
0.6632 -2.3242 -0.0204 0 -30 0 0
0.6358 -2.3238 -0.0206 0 -30 0 0
0.6358 -2.3238 -0.0206 0 0 0 0
0.6316 -2.3239 -0.0209 30 0 0 0
0.6126 -2.3242 -0.0239 30 0 0 0
0.6358 -2.3243 -0.0245 30 0 0 0
0.6442 -2.3247 -0.0290 30 0 0 0
0.6442 -2.3247 -0.0290 30 0 0 0
0.6274 -2.3245 -0.0290 30 0 0 0
0.6337 -2.3235 -0.0320 30 0 0 0
0.6379 -2.3236 -0.0329 30 0 0 0
0.6379 -2.3236 -0.0329 30 0 0 0
0.6463 -2.3246 -0.0350 30 0 0 0
0.6274 -2.3246 -0.0350 30 0 0 0
0.6421 -2.3246 -0.0311 30 0 0 0
0.6253 -2.3244 -0.0302 30 0 0 0
0.6505 -2.3242 -0.0279 30 0 0 0
0.6505 -2.3246 -0.0275 30 0 0 0
0.6505 -2.3246 -0.0275 30 0 0 0
0.6442 -2.3247 -0.0274 30 0 0 0
0.6463 -2.3244 -0.0262 30 0 0 0
0.6400 -2.3239 -0.0282 30 0 0 0
0.6400 -2.3239 -0.0282 30 0 0 0
0.6842 -2.3231 -0.0272 30 0 0 0
0.6379 -2.3231 -0.0272 30 0 0 0
0.6358 -2.3239 -0.0271 30 0 0 0
0.6547 -2.3246 -0.0262 30 0 0 0
0.6463 -2.3249 -0.0263 0 0 0 0
0.6463 -2.3254 -0.0278 0 -30 0 0
0.6632 -2.3241 -0.0255 0 -30 0 0
0.6589 -2.3238 -0.0250 0 -30 0 0
0.6653 -2.3238 -0.0232 0 -30 0 0
0.6758 -2.3242 -0.0225 0 -30 0 0
0.6674 -2.3247 -0.0220 0 -30 0 0
0.6674 -2.3247 -0.0220 0 -30 0 0
0.6695 -2.3239 -0.0222 0 -30 0 0
0.6526 -2.3235 -0.0223 0 -30 0 0
0.6547 -2.3235 -0.0229 0 -30 0 0
0.6547 -2.3235 -0.0229 0 -30 0 0
0.6589 -2.3234 -0.0227 0 -30 0 0
0.6695 -2.3234 -0.0259 0 -30 0 0
0.6695 -2.3237 -0.0262 0 -30 0 0
0.6526 -2.3242 -0.0254 0 -30 0 0
0.6526 -2.3242 -0.0254 0 -30 0 0
0.6821 -2.3242 -0.0258 0 -30 0 0
0.6842 -2.3246 -0.0257 0 -30 0 0
0.6526 -2.3245 -0.0254 0 -30 0 0
0.6526 -2.3246 -0.0252 0 -30 0 0
0.6653 -2.3244 -0.0262 0 -30 0 0
0.6653 -2.3244 -0.0262 0 -30 0 0
0.6653 -2.3239 -0.0255 0 -30 0 0
0.6674 -2.3239 -0.0234 0 -30 0 0
0.6653 -2.3239 -0.0239 0 -30 0 0
0.6653 -2.3239 -0.0239 0 -30 0 0
0.6589 -2.3230 -0.0236 0 -30 0 0
0.6589 -2.3230 -0.0236 0 -30 0 0
0.6716 -2.3230 -0.0228 0 0 0 0
0.6316 -2.3227 -0.0186 0 -30 0 0
0.6505 -2.3237 -0.0158 0 -30 0 0
0.6568 -2.3242 -0.0162 0 -30 0 0
0.6737 -2.3237 -0.0162 0 -30 0 0
0.6737 -2.3237 -0.0174 0 -30 0 0
0.6568 -2.3237 -0.0174 0 -30 0 0
0.6421 -2.3237 -0.0166 0 -30 0 0
0.6421 -2.3237 -0.0166 0 -30 0 0
0.6295 -2.3236 -0.0170 0 -30 0 0
0.6611 -2.3238 -0.0161 0 0 0 0
0.6021 -2.3228 -0.0062 0 0 0 30
0.6147 -2.3244 -0.0066 0 0 0 30
0.6337 -2.3239 -0.0038 0 0 0 0
0.6042 -2.3237 -0.0008 0 0 0 30
0.6084 -2.3230 0.0029 0 0 0 30
0.6084 -2.3231 0.0039 0 0 0 0
0.6021 -2.3253 0.0212 30 0 0 0
0.6063 -2.3249 0.0202 30 0 0 0
0.6126 -2.3254 0.0204 30 0 0 0
0.5979 -2.3261 0.0199 30 0 0 0
0.5979 -2.3261 0.0199 30 0 0 0
0.6084 -2.3260 0.0210 30 0 0 0
0.6147 -2.3257 0.0186 30 0 0 0
0.6063 -2.3255 0.0181 30 0 0 0
0.6232 -2.3254 0.0183 30 0 0 0
0.6232 -2.3254 0.0183 30 0 0 0
0.6253 -2.3257 0.0186 0 0 0 0
0.6274 -2.3251 0.0165 30 0 0 0
0.6421 -2.3247 0.0162 30 0 0 0
0.6400 -2.3251 0.0178 30 0 0 0
0.6421 -2.3255 0.0177 30 0 0 0
0.6421 -2.3255 0.0177 0 0 0 0
0.6421 -2.3248 0.0214 0 -30 0 0
0.6063 -2.3242 0.0206 0 -30 0 0
0.6147 -2.3239 0.0203 0 -30 0 0
0.5958 -2.3240 0.0201 0 -30 0 0
0.6105 -2.3239 0.0209 0 -30 0 0
0.6105 -2.3239 0.0209 0 -30 0 0
0.6295 -2.3244 0.0207 0 -30 0 0
0.6316 -2.3245 0.0209 0 -30 0 0
0.6232 -2.3245 0.0204 0 -30 0 0
0.6232 -2.3245 0.0204 0 -30 0 0
0.6126 -2.3250 0.0199 0 -30 0 0
0.6126 -2.3250 0.0199 0 -30 0 0
0.6126 -2.3248 0.0207 0 -30 0 0
0.6084 -2.3244 0.0208 0 -30 0 0
0.6084 -2.3243 0.0206 0 -30 0 0
0.6232 -2.3242 0.0216 0 -30 0 0
0.6063 -2.3242 0.0218 0 -30 0 0
0.6274 -2.3242 0.0216 0 -30 0 0
0.6189 -2.3244 0.0211 0 -30 0 0
0.6189 -2.3244 0.0211 0 -30 0 0
0.6295 -2.3247 0.0211 0 -30 0 0
0.6105 -2.3245 0.0207 0 -30 0 0
0.6274 -2.3244 0.0214 0 -30 0 0
0.6147 -2.3241 0.0216 0 -30 0 0
0.6379 -2.3240 0.0216 30 -30 0 0
0.6379 -2.3240 0.0216 30 -30 0 0
0.6316 -2.3238 0.0203 30 0 0 0
0.6295 -2.3238 0.0204 30 0 0 0
0.6084 -2.3241 0.0219 30 0 0 0
0.6084 -2.3241 0.0219 30 0 0 0
0.6021 -2.3244 0.0217 30 0 0 0
0.6168 -2.3244 0.0211 30 0 0 0
0.5916 -2.3246 0.0214 30 0 0 0
0.6042 -2.3240 0.0206 30 0 0 0
0.6042 -2.3240 0.0206 0 0 0 0
0.5937 -2.3244 0.0207 30 0 0 0
0.6084 -2.3245 0.0213 30 0 0 0
0.6105 -2.3246 0.0226 30 0 0 0
0.6105 -2.3245 0.0222 30 0 0 0
0.6295 -2.3246 0.0219 30 0 0 0
0.6189 -2.3248 0.0215 0 0 0 0
0.6189 -2.3248 0.0215 0 -30 0 0
0.6063 -2.3246 0.0198 0 -30 0 0
0.6063 -2.3246 0.0198 0 -30 0 0
0.6063 -2.3246 0.0198 0 -30 0 0
0.6042 -2.3246 0.0192 0 -30 0 0
0.6147 -2.3240 0.0160 0 -30 0 0
0.5958 -2.3237 0.0159 0 -30 0 0
0.5979 -2.3237 0.0156 0 -30 0 0
0.6063 -2.3240 0.0158 0 -30 0 0
0.6063 -2.3240 0.0158 0 -30 0 0
0.6189 -2.3248 0.0150 0 -30 0 0
0.6274 -2.3251 0.0161 0 -30 0 0
0.6063 -2.3255 0.0159 0 -30 0 0
0.6105 -2.3260 0.0159 0 -30 0 0
0.6105 -2.3260 0.0159 0 -30 0 0
0.6042 -2.3260 0.0160 0 -30 0 0
0.6189 -2.3261 0.0168 0 -30 0 0
0.5958 -2.3259 0.0165 0 -30 0 0
0.5958 -2.3257 0.0163 0 -30 0 0
0.6105 -2.3249 0.0165 0 -30 0 0
0.6105 -2.3249 0.0165 0 -30 0 0
0.5958 -2.3246 0.0163 0 -30 0 0
0.6126 -2.3244 0.0163 0 -30 0 0
0.6211 -2.3251 0.0146 0 -30 0 0
0.6253 -2.3256 0.0142 0 -30 0 0
0.6253 -2.3256 0.0142 0 -30 0 0
0.6337 -2.3253 0.0142 0 -30 0 0
0.6126 -2.3253 0.0117 0 -30 0 0
0.6211 -2.3244 0.0110 0 -30 0 0
0.6126 -2.3240 0.0113 0 -30 0 0
0.6126 -2.3240 0.0114 0 -30 0 0
0.6147 -2.3240 0.0114 0 -30 0 0
0.6168 -2.3237 0.0117 0 -30 0 0
0.6126 -2.3237 0.0126 0 -30 0 0
0.6168 -2.3237 0.0128 0 -30 0 0
0.6168 -2.3237 0.0128 0 -30 0 0
0.6253 -2.3234 0.0133 0 -30 0 0
0.6021 -2.3237 0.0137 0 -30 0 0
0.6295 -2.3239 0.0152 0 -30 0 0
0.6021 -2.3239 0.0159 0 -30 0 0
0.6084 -2.3234 0.0164 0 -30 0 0
0.6189 -2.3230 0.0178 0 -30 0 0
0.6189 -2.3230 0.0183 0 -30 0 0
0.6189 -2.3230 0.0183 0 -30 0 0
0.6274 -2.3230 0.0173 0 -30 0 0
0.6316 -2.3235 0.0193 0 -30 0 0
0.6126 -2.3237 0.0200 0 -30 0 0
0.6084 -2.3235 0.0211 0 -30 0 0
0.6084 -2.3235 0.0211 0 -30 0 0
0.6274 -2.3233 0.0209 0 -30 0 0
0.6316 -2.3230 0.0218 0 -30 0 0
0.6358 -2.3222 0.0215 0 -30 0 0
0.6274 -2.3218 0.0197 0 -30 0 0
0.6147 -2.3223 0.0199 0 -30 0 0
0.6147 -2.3223 0.0199 0 -30 0 0
0.6084 -2.3232 0.0211 0 -30 0 0
0.5895 -2.3234 0.0202 0 -30 0 0
0.6189 -2.3238 0.0194 0 -30 0 0
0.6189 -2.3238 0.0194 0 -30 0 0
0.6105 -2.3237 0.0184 0 -30 0 0
0.6168 -2.3237 0.0192 0 -30 0 0
0.6337 -2.3237 0.0191 0 -30 0 0
0.5958 -2.3235 0.0215 0 -30 0 0
0.5958 -2.3231 0.0213 0 -30 0 0
0.5937 -2.3231 0.0213 0 -30 0 0
0.6126 -2.3226 0.0220 0 -30 0 0
0.5874 -2.3225 0.0220 0 -30 0 0
0.5874 -2.3225 0.0238 0 -30 0 0
0.5916 -2.3223 0.0233 0 -30 0 0
0.5705 -2.3226 0.0241 0 -30 0 0
0.6084 -2.3230 0.0237 0 -30 0 0
0.5853 -2.3236 0.0238 0 -30 0 0
0.5853 -2.3236 0.0238 0 -30 0 0
0.5979 -2.3238 0.0216 0 -30 0 0
0.5895 -2.3241 0.0214 0 -30 0 0
0.5895 -2.3237 0.0219 0 -30 0 0
0.5832 -2.3237 0.0214 0 -30 0 0
0.5747 -2.3237 0.0192 0 -30 0 0
0.5684 -2.3239 0.0186 0 -30 0 0
0.5684 -2.3239 0.0186 0 -30 0 0
0.5979 -2.3239 0.0168 0 -30 0 0
0.5979 -2.3239 0.0168 0 -30 0 0
0.5832 -2.3239 0.0164 0 -30 0 0
0.5832 -2.3239 0.0164 0 -30 0 0
0.5558 -2.3243 0.0162 0 -30 0 0
0.5558 -2.3243 0.0162 0 -30 0 0
0.5726 -2.3247 0.0160 0 -30 0 0
0.5768 -2.3251 0.0146 0 -30 0 0
0.5853 -2.3253 0.0153 0 -30 0 0
0.5747 -2.3248 0.0149 0 -30 0 0
0.5747 -2.3248 0.0149 0 -30 0 0
0.5747 -2.3235 0.0153 0 -30 0 0
0.5537 -2.3235 0.0160 0 -30 0 0
0.5937 -2.3241 0.0157 0 -30 0 0
0.5705 -2.3244 0.0158 0 -30 0 0
0.5705 -2.3244 0.0158 0 -30 0 0
0.5600 -2.3244 0.0159 0 -30 0 0
0.5789 -2.3244 0.0159 0 -30 0 0
0.5621 -2.3244 0.0157 0 -30 0 0
0.5663 -2.3247 0.0156 0 -30 0 0
0.5663 -2.3247 0.0156 0 -30 0 0
0.5684 -2.3248 0.0153 0 -30 0 0
0.5747 -2.3252 0.0169 0 -30 0 0
0.5979 -2.3255 0.0170 0 0 0 0
0.5768 -2.3244 0.0174 30 0 0 0
0.5895 -2.3244 0.0201 30 0 0 0
0.5789 -2.3247 0.0199 30 0 0 0
0.5789 -2.3247 0.0199 30 0 0 0
0.5937 -2.3251 0.0215 30 0 0 0
0.5874 -2.3246 0.0214 30 0 0 0
0.5853 -2.3240 0.0216 30 0 0 0
0.5642 -2.3240 0.0222 30 0 0 0
0.5663 -2.3237 0.0245 30 0 0 0
0.5663 -2.3237 0.0245 30 0 0 0
0.5474 -2.3239 0.0244 30 0 0 0
0.5853 -2.3237 0.0234 30 0 0 0
0.5853 -2.3237 0.0234 30 0 0 0
0.5726 -2.3239 0.0229 30 0 0 0
0.5368 -2.3237 0.0213 30 0 0 0
0.5368 -2.3237 0.0213 30 0 0 0
0.5368 -2.3238 0.0210 30 0 0 0
0.5453 -2.3240 0.0201 30 0 0 0
0.5621 -2.3242 0.0202 30 0 0 0
0.5495 -2.3243 0.0209 30 0 0 0
0.5368 -2.3241 0.0227 30 0 0 0
0.5368 -2.3241 0.0227 30 0 0 0
0.5747 -2.3238 0.0235 30 0 0 0
0.5726 -2.3236 0.0232 30 0 0 0
0.5747 -2.3235 0.0245 30 0 0 0
0.5684 -2.3236 0.0246 30 0 0 0
0.5684 -2.3236 0.0246 30 0 0 0
0.5747 -2.3238 0.0260 30 0 0 0
0.5768 -2.3240 0.0255 30 0 0 0
0.5789 -2.3249 0.0266 30 0 0 0
0.5832 -2.3250 0.0262 30 0 0 0
0.5705 -2.3245 0.0249 30 0 0 0
0.5705 -2.3245 0.0249 30 0 0 0
0.5516 -2.3233 0.0256 30 0 0 0
0.5621 -2.3230 0.0251 30 0 0 0
0.5768 -2.3229 0.0246 30 0 0 0
0.5516 -2.3231 0.0251 30 0 0 0
0.5263 -2.3239 0.0244 30 0 0 0
0.5579 -2.3236 0.0245 30 0 0 0
0.5579 -2.3236 0.0245 30 0 0 0
0.5453 -2.3225 0.0238 30 0 0 0
0.5453 -2.3225 0.0238 30 0 0 0
0.5495 -2.3224 0.0234 30 0 0 0
0.5832 -2.3229 0.0231 30 0 0 0
0.5495 -2.3235 0.0228 30 0 0 0
0.5768 -2.3238 0.0257 30 0 0 0
0.5453 -2.3235 0.0255 30 0 0 0
0.5537 -2.3235 0.0262 30 0 0 0
0.5537 -2.3235 0.0262 30 0 0 0
0.5811 -2.3230 0.0259 30 0 0 0
0.5642 -2.3232 0.0250 30 0 0 0
0.5558 -2.3236 0.0244 30 0 0 0
0.5474 -2.3238 0.0244 30 0 0 0
0.5642 -2.3239 0.0237 30 0 0 0
0.5600 -2.3239 0.0237 30 0 0 0
0.5642 -2.3238 0.0231 30 0 0 0
0.5684 -2.3241 0.0227 30 0 0 0
0.5537 -2.3244 0.0228 30 0 0 0
0.5537 -2.3244 0.0228 30 0 0 0
0.5705 -2.3249 0.0224 30 0 0 0
0.5621 -2.3248 0.0226 30 0 0 0
0.5832 -2.3251 0.0225 30 0 0 0
0.5832 -2.3251 0.0225 30 0 0 0
0.5726 -2.3253 0.0217 0 0 0 0
0.5663 -2.3251 0.0226 30 0 0 0
0.6126 -2.3242 0.0256 30 0 0 0
0.6000 -2.3238 0.0250 30 0 0 0
0.6000 -2.3238 0.0250 30 0 0 0
0.5937 -2.3233 0.0238 30 0 0 0
0.6232 -2.3232 0.0237 30 0 0 0
0.6232 -2.3234 0.0231 0 0 0 0
0.6147 -2.3233 0.0208 30 0 0 0
0.6063 -2.3242 0.0204 30 0 0 0
0.6211 -2.3246 0.0212 30 0 0 0
0.6211 -2.3251 0.0218 30 0 0 0
0.6316 -2.3252 0.0229 30 0 0 0
0.6189 -2.3253 0.0221 0 0 0 0
0.6653 -2.3248 0.0202 0 30 0 0
0.6421 -2.3242 0.0224 0 30 0 0
0.6716 -2.3241 0.0254 0 30 0 0
0.6253 -2.3244 0.0249 0 30 0 0
0.6400 -2.3246 0.0163 0 30 0 0
0.6695 -2.3246 0.0137 0 30 0 0
0.6695 -2.3246 0.0137 0 30 0 0
0.6505 -2.3245 0.0072 0 0 0 0
0.6400 -2.3242 -0.0008 0 30 0 0
0.6379 -2.3238 -0.0017 0 30 0 0
0.6442 -2.3238 -0.0009 0 30 0 0
0.6779 -2.3241 -0.0017 0 30 0 0
0.6779 -2.3241 -0.0017 0 30 0 0
0.6758 -2.3241 -0.0035 0 30 0 0
0.6695 -2.3241 -0.0045 0 30 0 0
0.6989 -2.3244 -0.0061 0 0 0 0
0.6463 -2.3234 -0.0092 0 30 0 0
0.6611 -2.3238 -0.0088 0 30 0 0
0.6547 -2.3240 -0.0096 0 30 0 0
0.6674 -2.3242 -0.0088 0 0 0 0
0.6695 -2.3232 -0.0375 0 0 0 30
0.6526 -2.3241 -0.0352 0 0 0 30
0.6632 -2.3241 -0.0335 0 0 0 0
0.6821 -2.3227 -0.0310 0 0 0 30
0.6695 -2.3246 -0.0335 0 0 0 0
0.6947 -2.3253 -0.0345 0 0 0 30
0.6505 -2.3242 -0.0354 0 0 0 0
0.6632 -2.3246 -0.0293 0 0 0 30
0.6695 -2.3245 -0.0296 0 0 0 30
0.6632 -2.3250 -0.0268 0 0 0 0
0.6989 -2.3249 -0.0171 0 0 0 30
0.6632 -2.3246 -0.0164 0 0 0 30
0.6779 -2.3249 -0.0139 0 0 0 0
0.6716 -2.3260 -0.0059 0 0 0 30
0.6779 -2.3255 -0.0029 0 0 0 30
0.6800 -2.3253 -0.0027 0 0 0 0
0.6632 -2.3243 -0.0101 0 30 0 0
0.6653 -2.3232 -0.0083 0 30 0 0
0.6653 -2.3232 -0.0083 0 30 0 0
0.6653 -2.3232 -0.0083 0 30 0 0
0.6505 -2.3246 -0.0065 0 30 0 0
0.6632 -2.3240 -0.0067 0 0 0 0
0.6400 -2.3248 0.0051 0 30 0 0
0.6379 -2.3243 0.0052 0 0 0 0
0.6463 -2.3236 0.0083 0 -30 0 0
0.6632 -2.3242 0.0064 0 -30 0 0
0.6905 -2.3244 0.0094 0 -30 0 0
0.6800 -2.3245 0.0105 0 -30 0 0
0.6800 -2.3245 0.0105 0 -30 0 0
0.6737 -2.3243 0.0101 0 0 0 0
0.6484 -2.3244 0.0110 0 -30 0 0
0.6758 -2.3247 0.0105 0 -30 0 0
