0.6038 0.0003 -0.0190 0 30 0 0
0.5683 -0.0014 -0.0179 0 30 0 0
0.5765 -0.0003 -0.0197 0 30 0 0
0.5765 0.0011 -0.0194 0 30 0 0
0.5874 0.0011 -0.0194 0 0 0 0
0.5765 0.0017 -0.0045 0 30 0 0
0.5929 0.0019 -0.0067 0 30 0 0
0.6066 0.0016 -0.0080 0 0 0 0
0.5847 0.0019 -0.0171 0 30 0 0
0.6066 0.0017 -0.0141 0 30 0 0
0.5820 0.0015 -0.0114 0 0 0 0
0.5820 0.0008 -0.0103 0 30 0 0
0.5710 0.0014 -0.0101 0 30 0 0
0.5929 0.0015 -0.0098 0 0 0 0
0.5792 0.0011 -0.0155 0 30 0 0
0.5792 0.0008 -0.0174 0 30 0 0
0.5765 0.0012 -0.0169 0 30 0 0
0.5628 0.0011 -0.0178 0 0 0 0
0.5956 0.0000 -0.0231 0 30 0 0
0.6038 0.0011 -0.0249 0 30 0 0
0.5929 0.0002 -0.0262 0 30 0 0
0.5683 0.0002 -0.0260 0 30 0 0
0.5984 0.0006 -0.0266 0 30 0 0
0.5984 0.0006 -0.0266 0 30 0 0
0.5902 0.0014 -0.0266 0 0 0 0
0.6230 0.0014 -0.0283 0 30 0 0
0.5984 0.0004 -0.0297 0 30 0 0
0.5984 0.0004 -0.0297 0 30 0 0
0.5792 0.0004 -0.0297 0 30 0 0
0.5656 0.0003 -0.0293 0 30 0 0
0.5847 0.0008 -0.0293 0 30 0 0
0.5546 0.0004 -0.0291 0 0 0 0
0.5902 0.0004 -0.0284 0 30 0 0
0.5765 0.0005 -0.0275 0 30 0 0
0.5738 0.0010 -0.0266 0 30 0 0
0.5574 0.0015 -0.0258 0 0 0 0
0.5792 0.0016 -0.0249 0 0 0 30
0.5874 0.0023 -0.0242 0 0 0 30
0.5847 0.0022 -0.0242 0 0 0 0
0.5683 0.0021 -0.0244 0 0 0 30
0.5765 0.0031 -0.0222 0 0 0 30
0.5902 0.0030 -0.0203 0 0 0 0
0.5628 0.0029 -0.0187 0 0 0 30
0.5656 0.0019 -0.0161 0 0 0 30
0.5601 0.0019 -0.0161 0 0 0 30
0.5847 0.0017 -0.0144 0 0 0 30
0.6093 0.0017 -0.0134 0 0 0 30
0.5956 0.0018 -0.0119 0 0 0 30
0.5956 0.0018 -0.0119 0 0 0 30
0.5902 0.0018 -0.0099 0 0 0 30
0.5519 0.0024 -0.0076 0 0 0 30
0.5683 0.0024 -0.0041 0 0 0 30
0.5683 0.0024 -0.0041 0 0 0 30
0.5820 0.0025 -0.0028 0 0 0 30
0.5574 0.0020 0.0003 0 0 0 30
0.5902 0.0017 0.0037 0 0 0 30
0.5902 0.0018 0.0061 0 0 0 30
0.5902 0.0018 0.0061 0 0 0 30
0.6120 0.0019 -0.0018 0 0 0 30
0.6148 0.0022 -0.0007 0 0 0 30
0.5929 0.0022 -0.0003 0 0 0 30
0.6339 0.0022 -0.0003 0 0 0 30
0.6339 0.0021 0.0009 0 0 0 30
0.6421 0.0021 0.0009 0 0 0 30
0.6749 0.0017 0.0017 0 0 0 30
0.6667 0.0009 0.0039 0 0 0 30
0.6667 0.0001 0.0075 0 0 0 30
0.6776 0.0000 0.0087 0 0 0 30
0.6776 0.0000 0.0087 0 0 0 30
0.6913 0.0002 0.0082 0 0 0 30
0.6749 0.0003 0.0116 0 0 0 30
0.6749 0.0003 0.0116 0 0 0 0
0.7049 0.0022 0.0242 0 0 0 -30
0.6995 0.0019 0.0263 0 0 0 -30
0.6995 0.0011 0.0287 0 0 0 -30
0.6831 0.0007 0.0296 0 0 0 0
0.7240 0.0005 0.0368 0 0 0 -30
0.6995 0.0010 0.0388 0 0 0 -30
0.6831 0.0013 0.0404 0 0 0 0
0.6721 0.0018 0.0405 0 0 0 -30
0.6831 0.0033 0.0378 0 0 0 -30
0.6913 0.0035 0.0345 0 0 0 0
0.6858 0.0018 0.0321 0 0 0 -30
0.6858 0.0016 0.0301 0 0 0 -30
0.6967 0.0006 0.0287 0 0 0 0
0.6913 0.0024 0.0274 0 0 0 -30
0.7049 0.0020 0.0256 0 0 0 -30
0.6995 0.0006 0.0227 0 0 0 0
0.6913 0.0012 0.0223 0 0 0 -30
0.7077 0.0001 0.0211 0 0 0 -30
0.6913 -0.0009 0.0214 0 0 0 0
0.7104 0.0001 0.0210 0 0 0 -30
0.7213 0.0014 0.0176 0 0 0 -30
0.7186 0.0018 0.0162 0 0 0 0
0.6967 0.0016 0.0160 0 0 0 -30
0.6913 0.0029 0.0131 0 0 0 -30
0.6967 0.0026 0.0126 0 0 0 0
0.7131 0.0002 0.0111 0 0 0 -30
