0.5847 0.0006 -0.2233 0 0 0 10
0.6048 0.0006 -0.2252 0 0 0 10
0.5665 0.0004 -0.2254 0 0 0 10
0.5665 0.0004 -0.2254 0 0 0 10
0.5625 0.0002 -0.2245 0 0 0 10
0.5665 0.0000 -0.2249 0 0 0 10
0.5685 0.0004 -0.2258 0 0 0 10
0.5625 0.0008 -0.2255 0 0 0 10
0.5625 0.0008 -0.2255 0 0 0 10
0.5706 0.0012 -0.2235 0 0 0 10
0.5625 0.0013 -0.2225 0 0 0 10
0.5827 0.0013 -0.2217 0 0 0 10
0.5827 0.0013 -0.2217 0 0 0 10
0.5988 0.0013 -0.2184 0 0 0 10
0.5988 0.0013 -0.2184 0 0 0 10
0.5988 0.0012 -0.2159 0 0 0 10
0.5968 0.0008 -0.2121 0 0 0 10
0.5746 0.0008 -0.2076 0 0 0 10
0.5665 0.0006 -0.2059 0 0 0 10
0.5665 0.0006 -0.2059 0 0 0 10
0.5907 0.0007 -0.2030 0 0 0 10
0.5766 0.0007 -0.2007 0 0 0 10
0.6008 0.0007 -0.1929 0 0 0 10
0.5887 0.0007 -0.1900 0 0 0 10
0.5887 0.0004 -0.1880 0 0 0 10
0.5887 0.0004 -0.1880 0 0 0 10
0.6230 0.0005 -0.1847 0 0 0 10
0.5927 0.0001 -0.1837 0 0 0 10
0.6008 0.0001 -0.1821 0 0 0 10
0.6008 0.0004 -0.1770 0 0 0 10
0.5927 0.0004 -0.1739 0 0 0 10
0.5927 0.0004 -0.1739 0 0 0 10
0.6149 0.0006 -0.1706 0 0 0 10
0.5806 0.0006 -0.1672 0 0 0 10
0.6028 0.0006 -0.1645 0 0 0 10
0.5887 0.0006 -0.1630 0 0 0 10
0.5988 0.0004 -0.1607 0 0 0 10
0.6008 0.0004 -0.1587 0 0 0 10
0.6008 0.0003 -0.1541 0 0 0 10
0.6008 0.0003 -0.1541 0 0 0 10
0.5968 0.0003 -0.1497 0 0 0 10
0.6129 0.0003 -0.1475 0 0 0 10
0.6089 0.0001 -0.1464 0 0 0 10
0.6089 0.0001 -0.1464 0 0 0 10
0.6089 0.0001 -0.1440 0 0 0 10
0.5968 0.0001 -0.1421 0 0 0 10
0.5968 0.0006 -0.1385 0 0 0 10
0.6230 0.0005 -0.1350 0 0 0 10
0.6230 0.0005 -0.1350 0 0 0 10
0.6270 0.0006 -0.1349 0 0 0 10
0.6230 0.0004 -0.1314 0 0 0 10
0.6351 0.0005 -0.1289 0 0 0 10
0.6331 0.0005 -0.1277 0 0 0 10
0.6331 0.0005 -0.1277 0 0 0 10
0.6391 0.0001 -0.1265 0 0 0 10
0.6552 -0.0002 -0.1250 0 0 0 10
0.6472 -0.0002 -0.1240 0 0 0 10
0.6512 -0.0002 -0.1215 0 0 0 10
0.6512 0.0001 -0.1198 0 0 0 10
0.6552 0.0003 -0.1169 0 0 0 10
0.6552 0.0003 -0.1169 0 0 0 10
0.6431 0.0003 -0.1104 0 0 0 10
0.6129 0.0001 -0.1112 0 0 0 10
0.6532 -0.0002 -0.1107 0 0 0 10
0.6532 -0.0002 -0.1107 0 0 0 10
0.6472 -0.0002 -0.1077 0 0 0 10
0.6351 0.0000 -0.1071 0 0 0 10
0.6552 0.0008 -0.1029 0 0 0 10
0.6512 0.0008 -0.1007 0 0 0 10
0.6613 0.0005 -0.0989 0 0 0 10
0.6613 0.0005 -0.0989 0 0 0 10
0.6512 0.0000 -0.1006 0 0 0 10
0.6673 -0.0003 -0.0988 0 0 0 10
0.6633 -0.0005 -0.0957 0 0 0 10
0.6411 -0.0006 -0.0933 0 0 0 10
0.6593 -0.0009 -0.0900 0 0 0 10
0.6593 -0.0009 -0.0900 0 0 0 10
0.6593 -0.0007 -0.0855 0 0 0 10
0.6794 -0.0006 -0.0834 0 0 0 10
0.6875 -0.0004 -0.0816 0 0 0 10
0.6855 -0.0007 -0.0805 0 0 0 10
0.6976 -0.0007 -0.0748 0 0 0 10
0.6794 -0.0008 -0.0726 0 0 0 10
0.6835 -0.0007 -0.0697 0 0 0 10
0.6835 -0.0007 -0.0697 0 0 0 10
0.6875 -0.0004 -0.0677 0 0 0 10
0.6956 -0.0005 -0.0604 0 0 0 10
0.6835 -0.0006 -0.0578 0 0 0 10
0.6915 -0.0004 -0.0555 0 0 0 10
0.6875 -0.0003 -0.0518 0 0 0 10
0.6875 -0.0003 -0.0518 0 0 0 10
0.6774 -0.0006 -0.0504 0 0 0 10
0.6935 -0.0009 -0.0491 0 0 0 10
0.6895 -0.0009 -0.0441 0 0 0 10
0.6895 -0.0009 -0.0441 0 0 0 10
0.7036 -0.0007 -0.0389 0 0 0 10
0.6794 -0.0007 -0.0389 0 0 0 0
0.6956 -0.0014 -0.0277 0 0 0 10
0.7278 -0.0006 -0.0190 0 0 0 10
0.7238 -0.0006 -0.0190 0 0 0 10
0.7540 -0.0005 -0.0159 0 0 0 0
