0.5988 0.0021 -0.1642 0 0 0 10
0.5988 0.0019 -0.1747 0 0 0 10
0.6190 0.0022 -0.1783 0 0 0 10
0.6028 0.0020 -0.1786 0 0 0 10
0.6028 0.0020 -0.1786 0 0 0 10
0.5948 0.0019 -0.1804 0 0 0 10
0.6169 0.0017 -0.1805 0 0 0 10
0.6109 0.0015 -0.1804 0 0 0 10
0.6089 0.0014 -0.1790 0 0 0 10
0.6089 0.0014 -0.1790 0 0 0 10
0.6089 0.0017 -0.1784 0 0 0 10
0.6048 0.0017 -0.1791 0 0 0 10
0.6008 0.0020 -0.1781 0 0 0 10
0.6008 0.0020 -0.1767 0 0 0 10
0.5927 0.0020 -0.1755 0 0 0 10
0.5927 0.0020 -0.1755 0 0 0 10
0.5988 0.0019 -0.1736 0 0 0 10
0.6028 0.0018 -0.1716 0 0 0 10
0.6149 0.0017 -0.1693 0 0 0 10
0.6149 0.0015 -0.1672 0 0 0 10
0.6149 0.0015 -0.1672 0 0 0 10
0.5927 0.0015 -0.1669 0 0 0 10
0.5927 0.0015 -0.1669 0 0 0 10
0.5988 0.0010 -0.1661 0 0 0 10
0.6109 0.0008 -0.1659 0 0 0 10
0.5948 0.0011 -0.1632 0 0 0 10
0.5927 0.0010 -0.1591 0 0 0 10
0.5927 0.0010 -0.1591 0 0 0 10
0.6149 0.0011 -0.1530 0 0 0 10
0.6149 0.0011 -0.1530 0 0 0 10
0.6089 0.0013 -0.1506 0 0 0 10
0.6089 0.0013 -0.1506 0 0 0 10
0.6169 0.0018 -0.1463 0 0 0 10
0.6169 0.0018 -0.1463 0 0 0 10
0.6190 0.0021 -0.1471 0 0 0 10
0.6028 0.0023 -0.1398 0 0 0 10
0.6169 0.0020 -0.1356 0 0 0 10
0.6169 0.0020 -0.1356 0 0 0 10
0.6391 0.0012 -0.1308 0 0 0 10
0.6069 0.0008 -0.1293 0 0 0 10
0.6411 0.0006 -0.1273 0 0 0 10
0.6270 0.0005 -0.1257 0 0 0 10
0.6149 0.0008 -0.1250 0 0 0 10
0.6149 0.0008 -0.1250 0 0 0 10
0.6331 0.0012 -0.1223 0 0 0 10
0.6230 0.0010 -0.1196 0 0 0 10
0.6169 0.0008 -0.1192 0 0 0 10
0.6169 0.0008 -0.1192 0 0 0 10
0.6371 0.0005 -0.1166 0 0 0 10
0.6411 0.0007 -0.1133 0 0 0 10
0.6190 0.0008 -0.1089 0 0 0 10
0.6310 0.0007 -0.1085 0 0 0 10
0.6331 0.0004 -0.1067 0 0 0 10
0.6290 0.0006 -0.1057 0 0 0 10
0.6452 0.0008 -0.1054 0 0 0 10
0.6452 0.0008 -0.1034 0 0 0 10
0.6633 0.0008 -0.1034 0 0 0 10
0.6653 0.0009 -0.1023 0 0 0 10
0.6714 0.0003 -0.1014 0 0 0 10
0.6714 0.0003 -0.1014 0 0 0 10
0.6633 -0.0001 -0.1034 0 0 0 10
0.6694 0.0001 -0.1003 0 0 0 10
0.6512 0.0003 -0.0972 0 0 0 10
0.6673 0.0003 -0.0949 0 0 0 10
0.6714 -0.0002 -0.0901 0 0 0 10
0.6734 -0.0004 -0.0875 0 0 0 0
0.6774 -0.0006 -0.0715 0 0 0 10
0.6573 -0.0004 -0.0709 0 0 0 10
0.6895 -0.0000 -0.0705 0 0 0 10
0.6815 0.0002 -0.0701 0 0 0 0
0.6794 0.0008 -0.0673 0 0 0 10
0.6673 -0.0006 -0.0622 0 0 0 10
0.6895 0.0008 -0.0604 0 0 0 10
0.6714 0.0007 -0.0595 0 0 0 0
0.6895 0.0006 -0.0540 0 0 0 10
0.6956 -0.0009 -0.0552 0 0 0 10
0.6956 -0.0005 -0.0563 0 0 0 0
0.7056 -0.0005 -0.0545 0 0 0 10
0.6875 -0.0005 -0.0513 0 0 0 0
0.6774 -0.0010 -0.0507 0 0 0 10
0.6935 -0.0001 -0.0456 0 0 0 0
0.7077 -0.0029 -0.0420 0 0 0 10
0.7238 -0.0027 -0.0378 0 0 0 0
0.7137 -0.0026 -0.0363 0 0 0 10
0.7097 -0.0009 -0.0328 0 0 0 10
0.7399 -0.0008 -0.0318 0 0 0 0
0.7520 -0.0019 -0.0309 0 0 0 10
0.7117 -0.0018 -0.0261 0 0 0 10
0.7258 -0.0017 -0.0255 0 0 0 0
0.7339 -0.0020 -0.0241 0 0 0 10
0.7238 -0.0008 -0.0176 0 0 0 10
0.7419 -0.0013 -0.0176 0 0 0 10
