0.6060 -0.0010 -0.0230 10 0 0 0
0.5820 -0.0018 -0.0226 10 0 0 0
0.5680 -0.0019 -0.0238 10 0 0 0
0.5820 -0.0002 -0.0257 10 0 0 0
0.5920 0.0007 -0.0273 10 0 0 0
0.5960 0.0004 -0.0267 10 0 0 0
0.5980 -0.0003 -0.0269 10 0 0 0
0.5980 -0.0005 -0.0278 10 0 0 0
0.6060 -0.0009 -0.0274 10 0 0 0
0.5940 -0.0010 -0.0278 10 0 0 0
0.5940 -0.0010 -0.0278 10 0 0 0
0.5800 -0.0009 -0.0290 0 0 0 0
0.5800 -0.0007 -0.0259 10 0 0 0
0.6120 -0.0008 -0.0240 10 0 0 0
0.5860 -0.0008 -0.0235 10 0 0 0
0.5940 -0.0012 -0.0220 10 0 0 0
0.5820 -0.0014 -0.0212 10 0 0 0
0.5820 -0.0014 -0.0212 10 0 0 0
0.5540 -0.0014 -0.0201 10 0 0 0
0.5940 -0.0016 -0.0189 10 0 0 0
0.5940 -0.0016 -0.0189 10 0 0 0
0.5920 -0.0012 -0.0195 10 0 0 0
0.5840 -0.0011 -0.0194 10 0 0 0
0.5840 -0.0011 -0.0194 10 0 0 0
0.6140 -0.0008 -0.0199 10 0 0 0
0.6140 -0.0008 -0.0199 10 0 0 0
0.6020 -0.0006 -0.0202 10 0 0 0
0.6060 -0.0005 -0.0190 10 0 0 0
0.6000 -0.0008 -0.0187 10 0 0 0
0.6020 -0.0012 -0.0184 10 0 0 0
0.6020 -0.0012 -0.0184 10 0 0 0
0.5940 -0.0018 -0.0180 10 0 0 0
0.5760 -0.0018 -0.0177 10 0 0 0
0.5760 -0.0021 -0.0179 10 0 0 0
0.5760 -0.0021 -0.0179 10 0 0 0
0.5920 -0.0024 -0.0186 10 0 0 0
0.5920 -0.0024 -0.0186 10 0 0 0
0.5860 -0.0023 -0.0187 10 0 0 0
0.5740 -0.0024 -0.0188 10 0 0 0
0.5900 -0.0019 -0.0187 10 0 0 0
0.6020 -0.0015 -0.0182 10 0 0 0
0.6020 -0.0015 -0.0182 10 0 0 0
0.5880 -0.0012 -0.0176 10 0 0 0
0.5880 -0.0012 -0.0176 10 0 0 0
0.5900 -0.0015 -0.0176 10 0 0 0
0.5920 -0.0019 -0.0173 10 0 0 0
0.5860 -0.0023 -0.0174 10 0 0 0
0.5860 -0.0023 -0.0174 10 0 0 0
0.5780 -0.0025 -0.0184 10 0 0 0
0.5840 -0.0026 -0.0184 10 0 0 0
0.6040 -0.0027 -0.0177 10 0 0 0
0.6000 -0.0024 -0.0174 10 0 0 0
0.6000 -0.0024 -0.0174 10 0 0 0
0.5780 -0.0015 -0.0169 10 0 0 0
0.5780 -0.0015 -0.0169 10 0 0 0
0.5860 -0.0016 -0.0144 10 0 0 0
0.5820 -0.0019 -0.0129 10 0 0 0
0.5860 -0.0021 -0.0127 10 0 0 0
0.5840 -0.0024 -0.0128 10 0 0 0
0.5840 -0.0024 -0.0128 10 0 0 0
0.5760 -0.0023 -0.0142 10 0 0 0
0.5780 -0.0023 -0.0142 10 0 0 0
0.5820 -0.0023 -0.0143 10 0 0 0
0.5820 -0.0025 -0.0150 10 0 0 0
0.6100 -0.0029 -0.0149 10 0 0 0
0.5940 -0.0032 -0.0162 10 0 0 0
0.5800 -0.0033 -0.0163 10 0 0 0
0.5780 -0.0034 -0.0168 10 0 0 0
0.5720 -0.0037 -0.0188 10 0 0 0
0.5720 -0.0037 -0.0188 10 0 0 0
0.5960 -0.0037 -0.0196 10 0 0 0
0.5960 -0.0037 -0.0196 10 0 0 0
0.5920 -0.0032 -0.0187 10 0 0 0
0.6020 -0.0030 -0.0189 10 0 0 0
0.6020 -0.0030 -0.0189 10 0 0 0
0.5860 -0.0026 -0.0178 10 0 0 0
0.5840 -0.0023 -0.0174 10 0 0 0
0.5840 -0.0023 -0.0174 10 0 0 0
0.5800 -0.0023 -0.0171 10 0 0 0
0.6000 -0.0026 -0.0159 10 0 0 0
0.5840 -0.0028 -0.0157 10 0 0 0
0.5840 -0.0028 -0.0157 10 0 0 0
0.5940 -0.0028 -0.0156 10 0 0 0
0.5960 -0.0030 -0.0159 10 0 0 0
0.5860 -0.0026 -0.0161 10 0 0 0
0.5860 -0.0022 -0.0169 10 0 0 0
0.5860 -0.0022 -0.0169 10 0 0 0
0.6080 -0.0021 -0.0171 10 0 0 0
0.5940 -0.0021 -0.0161 10 0 0 0
0.6020 -0.0020 -0.0164 10 0 0 0
0.5900 -0.0017 -0.0161 10 0 0 0
0.6060 -0.0023 -0.0145 10 0 0 0
0.6060 -0.0023 -0.0145 10 0 0 0
0.6100 -0.0025 -0.0146 10 0 0 0
0.5860 -0.0022 -0.0134 10 0 0 0
0.5920 -0.0014 -0.0135 10 0 0 0
0.6060 -0.0012 -0.0109 0 0 0 0
0.6180 -0.0016 -0.0114 10 0 0 0
0.6160 -0.0016 -0.0112 10 0 0 0
0.6100 -0.0018 -0.0126 10 0 0 0
0.6280 -0.0017 -0.0130 10 0 0 0
0.6260 -0.0017 -0.0147 10 0 0 0
0.6320 -0.0017 -0.0151 0 0 0 0
0.6440 -0.0019 -0.0160 10 0 0 0
0.6600 -0.0012 -0.0151 10 0 0 0
0.6300 -0.0017 -0.0107 10 0 0 0
0.6260 -0.0017 -0.0107 0 0 0 0
0.6180 -0.0023 -0.0134 10 0 0 0
0.6320 -0.0016 -0.0191 10 0 0 0
0.6340 -0.0014 -0.0216 10 0 0 0
0.6280 -0.0011 -0.0218 0 0 0 0
0.6280 -0.0008 -0.0222 10 0 0 0
0.6360 -0.0016 -0.0205 10 0 0 0
0.6440 -0.0017 -0.0204 0 0 0 0
0.6420 -0.0005 -0.0210 10 0 0 0
0.6280 -0.0013 -0.0212 10 0 0 0
0.6280 -0.0013 -0.0212 0 0 0 0
0.6160 -0.0012 -0.0226 10 0 0 0
0.6380 -0.0018 -0.0236 10 0 0 0
0.6520 -0.0016 -0.0240 10 0 0 0
0.6540 -0.0016 -0.0239 0 0 0 0
0.6420 -0.0022 -0.0204 10 0 0 0
0.6580 -0.0024 -0.0165 10 0 0 0
0.6640 -0.0028 -0.0171 0 0 0 0
0.6520 -0.0016 -0.0165 10 0 0 0
0.6460 -0.0026 -0.0155 10 0 0 0
0.6400 -0.0023 -0.0153 10 0 0 0
0.6460 -0.0019 -0.0151 10 0 0 0
0.6500 -0.0016 -0.0148 0 0 0 0
0.7000 -0.0030 -0.0136 10 0 0 0
0.6640 -0.0018 -0.0103 10 0 0 0
0.6800 -0.0016 -0.0116 0 0 0 0
