0.5940 -0.0003 0.0054 10 0 0 0
0.6000 -0.0017 0.0026 10 0 0 0
0.5840 -0.0010 0.0034 10 0 0 0
0.6000 -0.0011 0.0038 10 0 0 0
0.5860 -0.0011 0.0038 10 0 0 0
0.5860 -0.0009 0.0005 10 0 0 0
0.5980 -0.0010 0.0006 10 0 0 0
0.5920 -0.0012 0.0005 10 0 0 0
0.5920 -0.0015 0.0009 10 0 0 0
0.5920 -0.0015 0.0009 10 0 0 0
0.5860 -0.0018 -0.0005 10 0 0 0
0.5900 -0.0018 -0.0010 10 0 0 0
0.5680 -0.0021 -0.0011 10 0 0 0
0.5680 -0.0021 -0.0011 10 0 0 0
0.6020 -0.0019 -0.0016 10 0 0 0
0.5840 -0.0019 -0.0019 10 0 0 0
0.5840 -0.0019 -0.0019 10 0 0 0
0.5820 -0.0022 -0.0023 10 0 0 0
0.5840 -0.0019 -0.0037 10 0 0 0
0.5600 -0.0014 -0.0043 10 0 0 0
0.5580 -0.0008 -0.0046 10 0 0 0
0.5620 -0.0006 -0.0052 10 0 0 0
0.5620 -0.0006 -0.0052 10 0 0 0
0.5900 -0.0001 -0.0046 10 0 0 0
0.5780 0.0000 -0.0051 10 0 0 0
0.5940 0.0000 -0.0040 10 0 0 0
0.5800 0.0000 -0.0046 10 0 0 0
0.5800 0.0000 -0.0046 10 0 0 0
0.5700 -0.0008 -0.0050 10 0 0 0
0.5740 -0.0008 -0.0050 10 0 0 0
0.5740 -0.0011 -0.0063 0 0 0 0
0.5640 -0.0008 -0.0073 10 0 0 0
0.5800 -0.0012 -0.0055 10 0 0 0
0.5820 -0.0004 -0.0049 10 0 0 0
0.5740 -0.0003 -0.0062 10 0 0 0
0.6040 -0.0004 -0.0067 10 0 0 0
0.5800 -0.0001 -0.0064 10 0 0 0
0.5800 0.0002 -0.0073 10 0 0 0
0.5600 0.0002 -0.0073 10 0 0 0
0.5560 -0.0000 -0.0088 10 0 0 0
0.5720 -0.0002 -0.0093 10 0 0 0
0.5840 -0.0007 -0.0088 10 0 0 0
0.5720 -0.0010 -0.0067 10 0 0 0
0.5780 -0.0013 -0.0071 10 0 0 0
0.5780 -0.0013 -0.0071 10 0 0 0
0.5900 -0.0012 -0.0048 10 0 0 0
0.5660 -0.0010 -0.0055 10 0 0 0
0.5820 -0.0008 -0.0049 10 0 0 0
0.5840 -0.0005 -0.0057 10 0 0 0
0.5840 -0.0005 -0.0057 10 0 0 0
0.5860 -0.0008 -0.0071 10 0 0 0
0.5860 -0.0008 -0.0071 10 0 0 0
0.5760 -0.0002 -0.0103 10 0 0 0
0.5840 -0.0002 -0.0095 10 0 0 0
0.5840 -0.0002 -0.0095 10 0 0 0
0.5940 -0.0007 -0.0102 10 0 0 0
0.5900 -0.0008 -0.0087 10 0 0 0
0.5800 -0.0008 -0.0090 10 0 0 0
0.5800 -0.0005 -0.0099 10 0 0 0
0.5800 -0.0005 -0.0099 10 0 0 0
0.5780 -0.0004 -0.0132 10 0 0 0
0.5780 -0.0004 -0.0132 0 0 0 0
0.6120 -0.0012 -0.0072 10 0 0 0
0.5660 -0.0013 -0.0028 10 0 0 0
0.5720 -0.0007 -0.0016 10 0 0 0
0.5920 -0.0010 -0.0020 10 0 0 0
0.6000 -0.0009 -0.0020 10 0 0 0
0.5820 -0.0009 -0.0026 0 0 0 0
0.5820 -0.0010 -0.0028 10 0 0 0
0.5940 -0.0012 -0.0052 10 0 0 0
0.5980 -0.0020 -0.0055 10 0 0 0
0.6060 -0.0019 -0.0051 10 0 0 0
0.6060 -0.0019 -0.0051 10 0 0 0
0.5980 -0.0017 -0.0046 10 0 0 0
0.5920 -0.0017 -0.0017 10 0 0 0
0.6020 -0.0018 -0.0021 0 0 0 0
0.5720 -0.0015 -0.0031 10 0 0 0
0.5860 -0.0013 -0.0039 10 0 0 0
0.6060 -0.0012 -0.0043 10 0 0 0
0.6000 -0.0012 -0.0046 10 0 0 0
0.6180 -0.0011 -0.0031 10 0 0 0
0.5940 -0.0013 -0.0038 10 0 0 0
0.5940 -0.0013 -0.0038 0 0 0 0
0.6120 -0.0027 -0.0031 10 0 0 0
0.6080 -0.0021 -0.0020 10 0 0 0
0.6060 -0.0026 -0.0027 10 0 0 0
0.6120 -0.0030 -0.0027 10 0 0 0
0.6060 -0.0033 -0.0028 10 0 0 0
0.6180 -0.0030 -0.0037 10 0 0 0
0.6200 -0.0027 -0.0024 10 0 0 0
0.6200 -0.0027 -0.0024 10 0 0 0
0.5980 -0.0025 -0.0040 10 0 0 0
0.6160 -0.0027 -0.0012 10 0 0 0
0.6160 -0.0030 -0.0016 0 0 0 0
0.6340 -0.0025 -0.0026 10 0 0 0
0.6260 -0.0014 -0.0030 10 0 0 0
0.6120 -0.0017 -0.0004 10 0 0 0
0.6120 -0.0017 -0.0004 10 0 0 0
0.5960 -0.0010 0.0039 0 0 0 0
0.6240 -0.0016 0.0151 10 0 0 0
0.6260 -0.0019 0.0109 10 0 0 0
0.6380 -0.0011 0.0090 10 0 0 0
0.6460 -0.0008 0.0081 10 0 0 0
0.6180 -0.0003 0.0076 0 0 0 0
0.6300 -0.0015 0.0064 10 0 0 0
0.6160 -0.0017 0.0048 10 0 0 0
0.6160 -0.0017 0.0048 10 0 0 0
0.6100 -0.0016 0.0068 10 0 0 0
0.6320 -0.0016 0.0058 0 0 0 0
0.6220 -0.0017 0.0113 10 0 0 0
0.6360 -0.0011 0.0237 10 0 0 0
0.6240 -0.0014 0.0285 10 0 0 0
0.6260 -0.0011 0.0278 10 0 0 0
0.6320 -0.0010 0.0334 0 0 0 0
0.5920 -0.0016 0.0383 10 0 0 0
0.5920 -0.0016 0.0383 10 0 0 0
0.5960 -0.0015 0.0364 10 0 0 0
0.5900 -0.0009 0.0434 10 0 0 0
0.6060 -0.0010 0.0448 10 0 0 0
0.6200 -0.0010 0.0425 0 0 0 0
0.6200 -0.0015 0.0452 10 0 0 0
0.6140 -0.0014 0.0508 10 0 0 0
0.6260 -0.0008 0.0484 10 0 0 0
0.6260 -0.0008 0.0484 10 0 0 0
0.6060 -0.0008 0.0496 0 0 0 0
0.6240 -0.0001 0.0465 10 0 0 0
0.5980 -0.0006 0.0409 10 0 0 0
0.6180 -0.0007 0.0371 10 0 0 0
0.6020 -0.0005 0.0349 10 0 0 0
0.5980 -0.0003 0.0314 0 0 0 0
0.6180 -0.0013 0.0235 10 0 0 0
0.6180 -0.0009 0.0166 10 0 0 0
0.6280 -0.0009 0.0157 10 0 0 0
0.6420 -0.0012 0.0099 10 0 0 0
0.6340 -0.0016 0.0088 0 0 0 0
0.6260 -0.0013 0.0056 10 0 0 0
0.6200 -0.0007 -0.0008 10 0 0 0
0.6160 -0.0015 -0.0032 10 0 0 0
0.6080 -0.0016 -0.0023 10 0 0 0
0.6080 -0.0016 -0.0023 0 0 0 0
0.6000 -0.0018 -0.0044 10 0 0 0
0.5840 -0.0021 -0.0060 10 0 0 0
0.6080 -0.0012 -0.0068 10 0 0 0
0.6020 -0.0015 -0.0068 10 0 0 0
0.5940 -0.0014 -0.0064 0 0 0 0
0.6100 -0.0006 -0.0063 10 0 0 0
0.6100 -0.0005 -0.0070 10 0 0 0
0.6100 -0.0005 -0.0070 10 0 0 0
0.5980 -0.0006 -0.0096 0 0 0 0
0.6200 -0.0005 -0.0105 10 0 0 0
0.6100 -0.0011 -0.0109 10 0 0 0
0.6000 -0.0010 -0.0110 10 0 0 0
0.6000 -0.0010 -0.0110 10 0 0 0
0.5880 -0.0010 -0.0118 0 0 0 0
0.6200 -0.0000 -0.0111 10 0 0 0
0.6040 0.0006 -0.0111 10 0 0 0
0.6160 0.0007 -0.0117 10 0 0 0
0.6400 0.0002 -0.0124 10 0 0 0
0.6260 0.0004 -0.0112 0 0 0 0
0.6160 -0.0000 -0.0118 10 0 0 0
0.6100 0.0002 -0.0138 10 0 0 0
0.6100 0.0002 -0.0138 10 0 0 0
0.6040 -0.0002 -0.0135 0 0 0 0
0.5920 -0.0003 -0.0116 10 0 0 0
0.5880 -0.0003 -0.0097 10 0 0 0
0.5940 -0.0003 -0.0092 10 0 0 0
0.6120 -0.0006 -0.0088 0 0 0 0
0.6180 -0.0015 -0.0085 10 0 0 0
0.6160 -0.0017 -0.0088 10 0 0 0
0.5960 -0.0014 -0.0090 10 0 0 0
0.5960 -0.0014 -0.0090 0 0 0 0
0.5960 -0.0009 -0.0119 10 0 0 0
0.6260 -0.0013 -0.0119 10 0 0 0
0.5980 -0.0014 -0.0126 10 0 0 0
0.6180 -0.0010 -0.0132 10 0 0 0
0.6180 -0.0010 -0.0132 0 0 0 0
0.6020 -0.0012 -0.0132 10 0 0 0
0.6160 -0.0018 -0.0123 10 0 0 0
0.6200 -0.0024 -0.0122 10 0 0 0
0.6200 -0.0024 -0.0122 10 0 0 0
0.6260 -0.0029 -0.0117 0 0 0 0
0.6100 -0.0033 -0.0116 10 0 0 0
0.6400 -0.0024 -0.0102 10 0 0 0
0.6420 -0.0025 -0.0072 10 0 0 0
0.6420 -0.0025 -0.0072 10 0 0 0
0.6380 -0.0024 -0.0065 0 0 0 0
0.6180 -0.0022 -0.0047 10 0 0 0
0.6040 -0.0025 -0.0042 10 0 0 0
0.6040 -0.0025 -0.0042 10 0 0 0
0.6360 -0.0023 -0.0050 10 0 0 0
0.6480 -0.0025 -0.0079 0 0 0 0
0.6400 -0.0028 -0.0082 10 0 0 0
0.6400 -0.0026 -0.0080 10 0 0 0
0.6360 -0.0024 -0.0084 10 0 0 0
0.6360 -0.0024 -0.0084 0 0 0 0
0.6240 -0.0023 -0.0077 10 0 0 0
0.6160 -0.0028 -0.0074 10 0 0 0
0.6160 -0.0028 -0.0074 0 0 0 0
0.6360 -0.0027 -0.0080 10 0 0 0
0.6280 -0.0017 -0.0115 10 0 0 0
0.6300 0.0002 -0.0114 10 0 0 0
0.6400 0.0008 -0.0107 10 0 0 0
0.6400 0.0008 -0.0107 0 0 0 0
0.6460 -0.0007 -0.0107 10 0 0 0
0.6400 -0.0007 -0.0104 10 0 0 0
0.6400 -0.0007 -0.0104 10 0 0 0
0.6460 -0.0003 -0.0108 10 0 0 0
0.6400 -0.0003 -0.0108 0 0 0 0
0.6440 -0.0001 -0.0105 10 0 0 0
0.6320 -0.0010 -0.0106 10 0 0 0
0.6240 -0.0009 -0.0116 10 0 0 0
0.6380 -0.0003 -0.0150 0 0 0 0
0.6640 -0.0002 -0.0174 10 0 0 0
0.6380 -0.0012 -0.0207 10 0 0 0
0.6260 -0.0008 -0.0220 10 0 0 0
0.6260 -0.0008 -0.0220 10 0 0 0
0.6380 -0.0011 -0.0232 10 0 0 0
0.6380 -0.0011 -0.0232 0 0 0 0
0.6120 -0.0015 -0.0230 10 0 0 0
0.6340 -0.0024 -0.0200 10 0 0 0
0.6420 -0.0023 -0.0202 10 0 0 0
0.6400 -0.0026 -0.0205 0 0 0 0
0.6300 -0.0021 -0.0200 0 0 0 10
0.6520 -0.0018 -0.0168 0 0 0 10
0.6380 -0.0017 -0.0167 0 0 0 0
0.6260 -0.0011 -0.0115 0 0 0 10
0.6300 -0.0014 -0.0094 0 0 0 10
0.6680 -0.0028 -0.0095 0 0 0 0
0.6380 -0.0014 -0.0092 0 0 0 10
0.6700 -0.0028 -0.0024 0 0 0 10
0.6540 -0.0021 -0.0027 0 0 0 0
