0.6420 0.1526 -0.0031 0 0 10 0
0.6500 0.1544 -0.0011 0 0 10 0
0.6420 0.1540 -0.0003 0 0 10 0
0.6300 0.1528 -0.0025 0 0 10 0
0.6300 0.1528 -0.0025 0 0 10 0
0.6340 0.1527 -0.0031 0 0 10 0
0.6200 0.1530 -0.0007 0 0 10 0
0.6240 0.1532 0.0009 0 0 10 0
0.6320 0.1530 -0.0010 0 0 10 0
0.6340 0.1531 -0.0022 0 0 10 0
0.6380 0.1524 0.0020 0 0 10 0
0.6340 0.1520 0.0009 0 0 10 0
0.6340 0.1520 0.0009 0 0 10 0
0.6200 0.1519 0.0012 0 0 10 0
0.6040 0.1521 0.0016 0 0 10 0
0.6300 0.1523 0.0015 0 0 10 0
0.6240 0.1517 -0.0042 0 0 10 0
0.6560 0.1512 -0.0044 0 0 10 0
0.6560 0.1512 -0.0044 0 0 10 0
0.6160 0.1510 -0.0058 0 0 10 0
0.6200 0.1508 -0.0060 0 0 10 0
0.5940 0.1504 -0.0066 0 0 10 0
0.5920 0.1501 -0.0063 0 0 10 0
0.6080 0.1499 -0.0061 0 0 10 0
0.6400 0.1496 -0.0060 0 0 10 0
0.6120 0.1493 -0.0052 0 0 10 0
0.5980 0.1487 -0.0022 0 0 10 0
0.6340 0.1482 -0.0016 0 0 10 0
0.6260 0.1480 0.0005 0 0 10 0
0.6140 0.1477 0.0021 0 0 10 0
0.6060 0.1476 0.0054 0 0 10 0
0.6060 0.1476 0.0054 0 0 10 0
0.6200 0.1472 0.0062 0 0 10 0
0.6320 0.1469 0.0059 0 0 10 0
0.6220 0.1469 0.0074 0 0 10 0
0.6380 0.1465 0.0084 0 0 10 0
0.6380 0.1465 0.0084 0 0 10 0
0.6160 0.1459 0.0105 0 0 10 0
0.6360 0.1456 0.0089 0 0 10 0
0.6280 0.1453 0.0092 0 0 10 0
0.6120 0.1444 0.0081 0 0 10 0
0.6120 0.1444 0.0081 0 0 10 0
0.6360 0.1446 0.0075 0 0 10 0
0.6140 0.1443 0.0085 0 0 10 0
0.6240 0.1443 0.0078 0 0 10 0
0.6220 0.1443 0.0089 0 0 10 0
0.6220 0.1440 0.0096 0 0 10 0
0.6300 0.1438 0.0089 0 0 10 0
0.6300 0.1438 0.0089 0 0 10 0
0.6240 0.1437 0.0087 0 0 10 0
0.6100 0.1432 0.0073 0 0 10 0
0.6340 0.1425 0.0078 0 0 10 0
0.6140 0.1417 0.0082 0 0 10 0
0.6140 0.1417 0.0082 0 0 10 0
0.6180 0.1409 0.0060 0 0 10 0
0.6180 0.1409 0.0060 0 0 10 0
0.6180 0.1411 0.0061 0 0 10 0
0.6340 0.1407 0.0064 0 0 10 0
0.6440 0.1403 0.0048 0 0 10 0
0.6220 0.1403 0.0074 0 0 10 0
0.6220 0.1403 0.0074 0 0 10 0
0.6260 0.1398 0.0101 0 0 10 0
0.6200 0.1387 0.0103 0 0 10 0
0.6200 0.1380 0.0100 0 0 10 0
0.6480 0.1377 0.0055 0 0 10 0
0.6240 0.1379 0.0079 0 0 10 0
0.6240 0.1379 0.0079 0 0 10 0
0.6420 0.1379 0.0079 0 0 10 0
0.6220 0.1374 0.0074 0 0 10 0
0.6300 0.1366 0.0079 0 0 10 0
0.6300 0.1366 0.0079 0 0 10 0
0.6340 0.1356 0.0076 0 0 10 0
0.6220 0.1349 0.0060 0 0 10 0
0.6280 0.1343 0.0080 0 0 10 0
0.6120 0.1341 0.0097 0 0 10 0
0.6200 0.1340 0.0072 0 0 10 0
0.6340 0.1340 0.0067 0 0 10 0
0.6340 0.1340 0.0067 0 0 10 0
0.6240 0.1334 0.0070 0 0 10 0
0.6280 0.1328 0.0064 0 0 10 0
0.6080 0.1321 0.0011 0 0 10 0
0.6080 0.1321 0.0011 0 0 10 0
0.6140 0.1312 0.0004 0 0 10 0
0.6420 0.1306 0.0014 0 0 10 0
0.6340 0.1304 0.0007 0 0 10 0
0.6380 0.1304 0.0014 0 0 10 0
0.6380 0.1305 0.0013 0 0 10 0
0.6380 0.1305 0.0013 0 0 10 0
0.6060 0.1305 0.0020 0 0 10 0
0.5880 0.1299 -0.0003 0 0 10 0
0.6180 0.1295 -0.0012 0 0 10 0
0.6220 0.1290 -0.0017 0 0 10 0
0.6140 0.1270 -0.0053 0 0 10 0
0.6140 0.1262 -0.0044 0 0 10 0
0.6140 0.1262 -0.0044 0 0 10 0
0.6180 0.1256 -0.0030 0 0 10 0
0.6120 0.1254 -0.0036 0 0 10 0
0.6180 0.1251 -0.0046 0 0 10 0
0.6200 0.1249 -0.0020 0 0 10 0
0.6200 0.1249 -0.0020 0 0 10 0
0.6200 0.1244 -0.0002 0 0 10 0
0.6220 0.1237 0.0001 0 0 10 0
0.6260 0.1232 0.0022 0 0 10 0
0.6260 0.1226 0.0046 0 0 10 0
0.6260 0.1226 0.0046 0 0 10 0
0.6100 0.1221 0.0043 0 0 10 0
0.6220 0.1222 0.0046 0 0 10 0
0.6380 0.1226 0.0030 0 0 10 0
0.6380 0.1226 0.0030 0 0 10 0
0.6100 0.1221 0.0023 0 0 10 0
0.6200 0.1215 0.0031 0 0 10 0
0.6380 0.1211 0.0035 0 0 10 0
0.6380 0.1208 0.0035 0 0 10 0
0.6400 0.1201 0.0052 0 0 10 0
0.6400 0.1201 0.0052 0 0 10 0
0.6400 0.1200 0.0054 0 0 10 0
0.6360 0.1197 0.0039 0 0 10 0
0.6120 0.1191 0.0046 0 0 10 0
0.6120 0.1189 0.0057 0 0 10 0
0.6340 0.1189 0.0060 0 0 10 0
0.6340 0.1189 0.0060 0 0 10 0
0.6260 0.1185 0.0083 0 0 10 0
0.6320 0.1181 0.0077 0 0 10 0
0.6100 0.1179 0.0080 0 0 10 0
0.6080 0.1171 0.0089 0 0 10 0
0.6080 0.1171 0.0089 0 0 10 0
0.6340 0.1163 0.0075 0 0 10 0
0.6320 0.1163 0.0075 0 0 10 0
0.6380 0.1162 0.0096 0 0 10 0
0.6400 0.1156 0.0089 0 0 10 0
0.6400 0.1156 0.0089 0 0 10 0
0.6400 0.1156 0.0049 0 0 10 0
0.6320 0.1156 0.0013 0 0 10 0
0.6040 0.1155 0.0012 0 0 10 0
0.6160 0.1154 0.0027 0 0 10 0
0.6160 0.1149 0.0030 0 0 10 0
0.6420 0.1145 0.0046 0 0 10 0
0.6420 0.1145 0.0046 0 0 10 0
0.6460 0.1132 0.0041 0 0 10 0
0.6380 0.1120 0.0052 0 0 10 0
0.6300 0.1115 0.0053 0 0 10 0
0.6120 0.1109 0.0035 0 0 10 0
0.6120 0.1109 0.0035 0 0 10 0
0.6440 0.1109 0.0035 0 0 10 0
0.6420 0.1111 0.0006 0 0 10 0
0.6460 0.1107 0.0007 0 0 10 0
0.6340 0.1101 0.0013 0 0 10 0
0.6060 0.1092 0.0014 0 0 10 0
0.6340 0.1087 -0.0007 0 0 10 0
0.6280 0.1087 -0.0005 0 0 10 0
0.6220 0.1089 -0.0019 0 0 10 0
0.6220 0.1089 -0.0019 0 0 10 0
0.6540 0.1092 -0.0018 0 0 10 0
0.6260 0.1087 -0.0062 0 0 10 0
0.6400 0.1084 -0.0048 0 0 10 0
0.6400 0.1084 -0.0048 0 0 10 0
0.6500 0.1076 -0.0050 0 0 10 0
0.6400 0.1065 -0.0066 0 0 10 0
0.6520 0.1065 -0.0066 0 0 10 0
0.6340 0.1063 -0.0081 0 0 10 0
0.6180 0.1058 -0.0087 0 0 10 0
0.6320 0.1054 -0.0106 0 0 10 0
0.6320 0.1054 -0.0106 0 0 10 0
0.6380 0.1043 -0.0098 0 0 10 0
0.6420 0.1039 -0.0079 0 0 10 0
0.6360 0.1032 -0.0079 0 0 10 0
0.6460 0.1030 -0.0087 0 0 10 0
0.6700 0.1028 -0.0105 0 0 10 0
0.6700 0.1028 -0.0105 0 0 10 0
0.6680 0.1022 -0.0090 0 0 10 0
0.6480 0.1013 -0.0135 0 0 10 0
0.6340 0.1000 -0.0089 0 0 10 0
0.6560 0.1000 -0.0089 0 0 10 0
0.6460 0.0990 -0.0087 0 0 10 0
0.6420 0.0982 -0.0088 0 0 10 0
0.6480 0.0982 -0.0080 0 0 10 0
0.6400 0.0979 0.0035 0 0 10 0
0.6320 0.0978 0.0038 0 0 10 0
0.6420 0.0982 0.0022 0 0 10 0
0.6520 0.0986 0.0026 0 0 10 0
0.6440 0.0985 0.0048 0 0 10 0
0.6460 0.0972 0.0051 0 0 10 0
0.6460 0.0972 0.0051 0 0 10 0
0.6460 0.0959 0.0037 0 0 10 0
0.6540 0.0954 0.0038 0 0 10 0
0.6500 0.0951 0.0046 0 0 10 0
0.6420 0.0947 0.0040 0 0 10 0
0.6420 0.0947 0.0040 0 0 10 0
0.6600 0.0939 0.0055 0 0 10 0
0.6600 0.0939 0.0055 0 0 10 0
0.6740 0.0937 0.0048 0 0 10 0
0.6740 0.0937 0.0048 0 0 10 0
0.6520 0.0934 0.0086 0 0 10 0
0.6520 0.0929 0.0065 0 0 10 0
0.6740 0.0929 0.0065 0 0 10 0
0.6640 0.0930 0.0094 0 0 10 0
0.6760 0.0926 0.0079 0 0 10 0
0.6640 0.0922 0.0041 0 0 10 0
0.6640 0.0922 0.0041 0 0 10 0
0.6640 0.0910 0.0062 0 0 10 0
0.6580 0.0909 0.0038 0 0 10 0
0.6600 0.0907 0.0038 0 0 10 0
0.6740 0.0903 0.0043 0 0 10 0
0.6740 0.0903 0.0043 0 0 10 0
0.6540 0.0901 0.0032 0 0 10 0
0.6560 0.0895 0.0026 0 0 10 0
0.6460 0.0894 0.0025 0 0 10 0
0.6520 0.0889 0.0015 0 0 10 0
0.6440 0.0890 -0.0003 0 0 10 0
0.6440 0.0892 -0.0009 0 0 10 0
0.6520 0.0892 -0.0009 0 0 10 0
0.6560 0.0887 -0.0036 0 0 10 0
0.6780 0.0883 -0.0034 0 0 10 0
0.6620 0.0872 -0.0055 0 0 10 0
0.6680 0.0867 -0.0055 0 0 10 0
0.6680 0.0867 -0.0055 0 0 10 0
0.6760 0.0862 -0.0046 0 0 10 0
0.6500 0.0857 -0.0038 0 0 10 0
0.6660 0.0857 -0.0039 0 0 10 0
0.6660 0.0857 -0.0039 0 0 10 0
0.6740 0.0848 -0.0056 0 0 10 0
0.6780 0.0842 -0.0068 0 0 10 0
0.6780 0.0842 -0.0068 0 0 10 0
0.6940 0.0836 -0.0054 0 0 10 0
0.6860 0.0832 -0.0032 0 0 10 0
0.6720 0.0828 -0.0031 0 0 10 0
0.6720 0.0828 -0.0031 0 0 10 0
0.6720 0.0824 -0.0013 0 0 10 0
0.6940 0.0819 0.0022 0 0 10 0
0.6860 0.0814 0.0046 0 0 10 0
0.6780 0.0806 0.0041 0 0 10 0
0.6760 0.0805 0.0033 0 0 10 0
0.6760 0.0805 0.0033 0 0 10 0
0.6760 0.0805 0.0033 0 0 10 0
0.6980 0.0805 0.0033 0 0 10 0
0.6880 0.0787 0.0020 0 0 10 0
0.6860 0.0780 0.0079 0 0 10 0
0.6900 0.0776 0.0047 0 0 10 0
0.6900 0.0776 0.0047 0 0 10 0
0.6680 0.0772 0.0045 0 0 10 0
0.6460 0.0768 0.0037 0 0 10 0
0.6600 0.0763 0.0042 0 0 10 0
0.6600 0.0763 0.0042 0 0 10 0
0.6700 0.0752 0.0065 0 0 10 0
0.6700 0.0752 0.0065 0 0 10 0
0.6860 0.0754 0.0092 0 0 10 0
0.6640 0.0746 0.0087 0 0 10 0
0.6620 0.0743 0.0089 0 0 10 0
0.6620 0.0736 0.0091 0 0 10 0
0.6620 0.0736 0.0091 0 0 10 0
0.6900 0.0733 0.0069 0 0 10 0
0.6900 0.0729 0.0079 0 0 10 0
0.6860 0.0725 0.0101 0 0 10 0
0.6860 0.0725 0.0101 0 0 10 0
0.6840 0.0712 0.0132 0 0 10 0
0.6840 0.0712 0.0132 0 0 10 0
0.6820 0.0707 0.0118 0 0 10 0
0.6660 0.0700 0.0118 0 0 10 0
0.6600 0.0700 0.0112 0 0 10 0
0.6660 0.0694 0.0107 0 0 10 0
0.6660 0.0694 0.0107 0 0 10 0
0.6780 0.0694 0.0105 0 0 10 0
0.6920 0.0690 0.0103 0 0 10 0
0.6800 0.0688 0.0104 0 0 10 0
0.6980 0.0677 0.0132 0 0 10 0
0.6840 0.0672 0.0112 0 0 10 0
0.6960 0.0673 0.0111 0 0 10 0
0.6960 0.0673 0.0111 0 0 10 0
0.6780 0.0671 0.0099 0 0 10 0
0.6720 0.0667 0.0068 0 0 10 0
0.6860 0.0664 0.0067 0 0 10 0
0.6920 0.0655 0.0067 0 0 10 0
0.6720 0.0645 0.0059 0 0 10 0
0.6580 0.0643 0.0082 0 0 10 0
0.6580 0.0643 0.0082 0 0 10 0
0.6860 0.0638 0.0077 0 0 10 0
0.6940 0.0640 0.0104 0 0 10 0
0.7020 0.0637 0.0097 0 0 10 0
0.7020 0.0637 0.0097 0 0 10 0
0.6800 0.0620 0.0067 0 0 10 0
0.6800 0.0620 0.0067 0 0 10 0
0.6940 0.0613 0.0044 0 0 10 0
0.6880 0.0599 0.0018 0 0 10 0
0.6880 0.0599 0.0018 0 0 10 0
0.6960 0.0592 0.0051 0 0 10 0
0.6900 0.0598 0.0041 0 0 10 0
0.6900 0.0598 0.0041 0 0 10 0
0.6740 0.0602 0.0034 0 0 10 0
0.6880 0.0601 0.0038 0 0 10 0
0.7020 0.0598 0.0030 0 0 10 0
0.7020 0.0598 0.0030 0 0 10 0
0.6820 0.0591 0.0008 0 0 10 0
0.6680 0.0584 0.0004 0 0 10 0
0.6800 0.0581 0.0001 0 0 10 0
0.6800 0.0581 0.0001 0 0 10 0
0.6760 0.0572 -0.0008 0 0 10 0
0.6860 0.0567 -0.0033 0 0 10 0
0.6860 0.0567 -0.0033 0 0 10 0
0.6780 0.0564 -0.0034 0 0 10 0
0.6880 0.0560 -0.0068 0 0 10 0
0.7120 0.0558 -0.0068 0 0 10 0
0.7120 0.0558 -0.0068 0 0 10 0
0.6920 0.0555 -0.0082 0 0 10 0
0.6880 0.0550 -0.0077 0 0 10 0
0.6720 0.0545 -0.0099 0 0 10 0
0.6780 0.0534 -0.0094 0 0 10 0
0.7140 0.0526 -0.0086 0 0 10 0
0.6740 0.0521 -0.0082 0 0 10 0
0.6740 0.0521 -0.0082 0 0 10 0
0.7160 0.0515 -0.0107 0 0 10 0
0.7020 0.0509 -0.0104 0 0 10 0
0.6920 0.0501 -0.0092 0 0 10 0
0.7040 0.0496 -0.0085 0 0 10 0
0.7040 0.0496 -0.0085 0 0 10 0
0.7080 0.0488 -0.0089 0 0 10 0
0.7080 0.0488 -0.0089 0 0 10 0
0.6880 0.0481 -0.0082 0 0 10 0
0.6920 0.0480 -0.0117 0 0 10 0
0.7140 0.0480 -0.0114 0 0 10 0
0.7020 0.0484 -0.0092 0 0 10 0
0.7020 0.0484 -0.0092 0 0 10 0
0.7020 0.0484 -0.0097 0 0 10 0
0.7100 0.0470 -0.0094 0 0 10 0
0.7160 0.0465 -0.0092 0 0 10 0
0.7200 0.0461 -0.0089 0 0 10 0
0.7200 0.0462 -0.0074 0 0 10 0
0.7120 0.0462 -0.0074 0 0 10 0
0.7040 0.0455 -0.0050 0 0 10 0
0.7040 0.0455 -0.0050 0 0 10 0
0.7180 0.0448 -0.0072 0 0 10 0
0.6980 0.0448 -0.0066 0 0 10 0
0.7220 0.0444 -0.0036 0 0 10 0
0.7220 0.0444 -0.0036 0 0 10 0
0.7160 0.0441 -0.0040 0 0 10 0
0.7140 0.0441 -0.0039 0 0 10 0
0.7140 0.0443 -0.0021 0 0 10 0
0.7040 0.0438 -0.0024 0 0 10 0
0.7240 0.0434 -0.0022 0 0 10 0
0.7000 0.0427 -0.0022 0 0 10 0
0.7000 0.0427 -0.0022 0 0 10 0
0.6900 0.0422 -0.0025 0 0 10 0
0.7160 0.0414 -0.0036 0 0 10 0
0.7140 0.0410 -0.0046 0 0 10 0
0.7140 0.0410 -0.0046 0 0 10 0
0.7180 0.0408 -0.0046 0 0 10 0
0.7080 0.0403 -0.0055 0 0 10 0
0.7160 0.0395 -0.0080 0 0 10 0
0.7160 0.0389 -0.0082 0 0 10 0
0.7020 0.0389 -0.0082 0 0 10 0
0.7100 0.0385 -0.0125 0 0 10 0
0.7220 0.0383 -0.0128 0 0 10 0
0.7160 0.0380 -0.0140 0 0 10 0
0.7400 0.0375 -0.0139 0 0 10 0
0.7040 0.0371 -0.0123 0 0 10 0
0.7180 0.0364 -0.0122 0 0 10 0
0.7320 0.0359 -0.0161 0 0 10 0
0.7320 0.0359 -0.0159 0 0 10 0
0.7300 0.0359 -0.0159 0 0 10 0
0.7180 0.0357 -0.0188 0 0 10 0
0.7220 0.0354 -0.0191 0 0 10 0
0.7400 0.0353 -0.0190 0 0 10 0
0.7200 0.0349 -0.0197 0 0 10 0
0.7300 0.0342 -0.0190 0 0 10 0
0.7300 0.0342 -0.0190 0 0 10 0
0.7360 0.0337 -0.0178 0 0 10 0
0.7340 0.0334 -0.0183 0 0 10 0
0.7400 0.0333 -0.0164 0 0 10 0
0.7480 0.0334 -0.0161 0 0 10 0
0.7180 0.0331 -0.0167 0 0 10 0
0.7140 0.0326 -0.0162 0 0 10 0
0.7420 0.0320 -0.0158 0 0 10 0
0.7420 0.0320 -0.0158 0 0 10 0
0.7400 0.0314 -0.0157 0 0 10 0
0.7320 0.0306 -0.0165 0 0 10 0
0.7240 0.0306 -0.0161 0 0 10 0
0.7240 0.0302 -0.0137 0 0 10 0
0.7300 0.0297 -0.0128 0 0 10 0
0.7300 0.0297 -0.0128 0 0 10 0
0.7400 0.0292 -0.0173 0 0 10 0
0.7300 0.0281 -0.0150 0 0 10 0
0.7240 0.0278 -0.0175 0 0 10 0
0.7340 0.0282 -0.0171 0 0 10 0
0.7120 0.0278 -0.0139 0 0 10 0
0.7120 0.0278 -0.0139 0 0 10 0
0.7240 0.0274 -0.0148 0 0 10 0
0.7420 0.0265 -0.0165 0 0 10 0
0.7200 0.0261 -0.0159 0 0 10 0
0.7320 0.0254 -0.0114 0 0 10 0
0.7320 0.0254 -0.0114 0 0 10 0
0.7180 0.0242 -0.0114 0 0 10 0
0.7220 0.0239 -0.0076 0 0 10 0
0.7320 0.0233 -0.0067 0 0 10 0
0.7320 0.0233 -0.0067 0 0 10 0
0.7400 0.0232 -0.0007 0 0 10 0
0.7480 0.0230 -0.0003 0 0 10 0
0.7480 0.0230 -0.0003 0 0 10 0
0.7360 0.0225 0.0018 0 0 10 0
0.7360 0.0225 0.0018 0 0 10 0
0.7480 0.0216 0.0014 0 0 10 0
0.7560 0.0204 0.0010 0 0 10 0
0.7680 0.0199 0.0031 0 0 10 0
0.7680 0.0196 0.0032 0 0 10 0
0.7680 0.0196 0.0032 0 0 10 0
0.7620 0.0192 0.0008 0 0 10 0
0.7440 0.0185 0.0014 0 0 10 0
0.7540 0.0183 0.0027 0 0 10 0
0.7320 0.0180 0.0022 0 0 10 0
0.7520 0.0179 0.0032 0 0 10 0
0.7360 0.0182 0.0033 0 0 10 0
0.7360 0.0182 0.0033 0 0 10 0
0.7440 0.0176 0.0049 0 0 10 0
0.7220 0.0174 0.0047 0 0 10 0
0.7480 0.0166 0.0061 0 0 10 0
0.7480 0.0166 0.0061 0 0 10 0
0.7480 0.0154 0.0096 0 0 10 0
0.7480 0.0154 0.0096 0 0 10 0
0.7560 0.0154 0.0087 0 0 10 0
0.7520 0.0152 0.0069 0 0 10 0
0.7620 0.0152 0.0099 0 0 10 0
0.7400 0.0150 0.0094 0 0 10 0
0.7400 0.0150 0.0094 0 0 10 0
0.7360 0.0150 0.0089 0 0 10 0
0.7480 0.0145 0.0087 0 0 10 0
0.7320 0.0137 0.0090 0 0 10 0
0.7320 0.0137 0.0090 0 0 10 0
0.7460 0.0117 0.0084 0 0 10 0
0.7460 0.0117 0.0084 0 0 10 0
0.7440 0.0113 0.0075 0 0 10 0
0.7500 0.0108 0.0130 0 0 10 0
0.7360 0.0102 0.0136 0 0 10 0
0.7360 0.0102 0.0136 0 0 10 0
0.7500 0.0096 0.0131 0 0 0 0
0.7680 0.0075 0.0137 0 0 10 0
0.7580 0.0060 0.0115 0 0 10 0
0.7580 0.0060 0.0115 0 0 10 0
0.7720 0.0054 0.0067 0 0 0 0
