0.6120 0.1408 0.0143 0 0 10 0
0.6100 0.1415 0.0095 0 0 10 0
0.6120 0.1414 0.0098 0 0 10 0
0.6260 0.1419 0.0105 0 0 10 0
0.6060 0.1424 0.0083 0 0 10 0
0.6060 0.1424 0.0083 0 0 10 0
0.6180 0.1425 0.0093 0 0 10 0
0.6340 0.1425 0.0102 0 0 10 0
0.6260 0.1425 0.0088 0 0 10 0
0.6260 0.1421 0.0084 0 0 10 0
0.6020 0.1421 0.0084 0 0 10 0
0.6200 0.1422 0.0097 0 0 10 0
0.6100 0.1425 0.0127 0 0 10 0
0.6320 0.1424 0.0128 0 0 10 0
0.6180 0.1421 0.0133 0 0 10 0
0.6080 0.1419 0.0138 0 0 10 0
0.6080 0.1419 0.0138 0 0 10 0
0.6180 0.1417 0.0155 0 0 10 0
0.6380 0.1415 0.0153 0 0 10 0
0.6380 0.1413 0.0167 0 0 10 0
0.6240 0.1413 0.0167 0 0 10 0
0.6220 0.1413 0.0175 0 0 10 0
0.6200 0.1406 0.0166 0 0 10 0
0.6160 0.1406 0.0167 0 0 10 0
0.6180 0.1403 0.0196 0 0 10 0
0.6140 0.1403 0.0188 0 0 10 0
0.6140 0.1403 0.0188 0 0 10 0
0.6240 0.1405 0.0198 0 0 10 0
0.6340 0.1404 0.0196 0 0 10 0
0.6300 0.1399 0.0200 0 0 10 0
0.6440 0.1393 0.0175 0 0 10 0
0.6440 0.1391 0.0178 0 0 10 0
0.6060 0.1385 0.0131 0 0 10 0
0.6400 0.1380 0.0132 0 0 10 0
0.6400 0.1380 0.0132 0 0 10 0
0.6380 0.1373 0.0123 0 0 10 0
0.6220 0.1365 0.0119 0 0 10 0
0.6080 0.1364 0.0136 0 0 10 0
0.6200 0.1364 0.0123 0 0 10 0
0.6180 0.1361 0.0116 0 0 10 0
0.6180 0.1355 0.0112 0 0 10 0
0.6540 0.1346 0.0108 0 0 10 0
0.6260 0.1338 0.0097 0 0 10 0
0.6260 0.1338 0.0097 0 0 10 0
0.6240 0.1332 0.0098 0 0 10 0
0.6100 0.1327 0.0093 0 0 10 0
0.6280 0.1326 0.0091 0 0 10 0
0.6040 0.1325 0.0070 0 0 10 0
0.6100 0.1319 0.0066 0 0 10 0
0.6180 0.1311 0.0094 0 0 10 0
0.6180 0.1311 0.0094 0 0 10 0
0.6260 0.1306 0.0092 0 0 10 0
0.6240 0.1304 0.0095 0 0 10 0
0.6200 0.1295 0.0097 0 0 10 0
0.6200 0.1295 0.0097 0 0 10 0
0.6120 0.1292 0.0109 0 0 10 0
0.6140 0.1293 0.0110 0 0 10 0
0.6180 0.1291 0.0100 0 0 10 0
0.6260 0.1285 0.0096 0 0 10 0
0.6380 0.1263 0.0083 0 0 10 0
0.6240 0.1253 0.0087 0 0 10 0
0.6240 0.1253 0.0087 0 0 10 0
0.6260 0.1249 0.0094 0 0 10 0
0.6280 0.1252 0.0098 0 0 10 0
0.6280 0.1251 0.0082 0 0 10 0
0.6280 0.1251 0.0082 0 0 10 0
0.6140 0.1242 0.0066 0 0 10 0
0.6140 0.1242 0.0066 0 0 10 0
0.6060 0.1239 0.0071 0 0 10 0
0.6100 0.1239 0.0069 0 0 10 0
0.6380 0.1238 0.0043 0 0 10 0
0.6320 0.1236 0.0057 0 0 10 0
0.6320 0.1236 0.0057 0 0 10 0
0.6260 0.1235 0.0017 0 0 10 0
0.6120 0.1232 0.0019 0 0 10 0
0.6260 0.1226 0.0044 0 0 10 0
0.6140 0.1220 0.0054 0 0 10 0
0.6180 0.1213 0.0036 0 0 10 0
0.6160 0.1207 0.0044 0 0 10 0
0.6160 0.1207 0.0044 0 0 10 0
0.6080 0.1210 0.0068 0 0 10 0
0.6160 0.1208 0.0070 0 0 10 0
0.6160 0.1206 0.0059 0 0 10 0
0.6160 0.1206 0.0059 0 0 10 0
0.6200 0.1182 0.0075 0 0 10 0
0.6280 0.1177 0.0072 0 0 10 0
0.6280 0.1177 0.0072 0 0 10 0
0.6300 0.1174 0.0070 0 0 10 0
0.6320 0.1171 0.0072 0 0 10 0
0.6200 0.1169 0.0090 0 0 10 0
0.6200 0.1169 0.0090 0 0 10 0
0.6340 0.1165 0.0069 0 0 10 0
0.6340 0.1165 0.0069 0 0 10 0
0.6380 0.1159 0.0075 0 0 10 0
0.6380 0.1159 0.0075 0 0 10 0
0.6180 0.1157 0.0038 0 0 10 0
0.6260 0.1155 0.0044 0 0 10 0
0.6260 0.1155 0.0044 0 0 10 0
0.6460 0.1145 0.0024 0 0 10 0
0.6400 0.1138 0.0022 0 0 10 0
0.6440 0.1127 0.0031 0 0 10 0
0.6440 0.1127 0.0031 0 0 10 0
0.6320 0.1119 0.0059 0 0 10 0
0.6320 0.1119 0.0059 0 0 10 0
0.6320 0.1116 0.0081 0 0 10 0
0.6380 0.1110 0.0088 0 0 10 0
0.6040 0.1105 0.0089 0 0 10 0
0.6300 0.1102 0.0103 0 0 10 0
0.6300 0.1102 0.0103 0 0 10 0
0.6260 0.1100 0.0075 0 0 10 0
0.6240 0.1098 0.0075 0 0 10 0
0.6380 0.1091 0.0078 0 0 10 0
0.6320 0.1087 0.0077 0 0 10 0
0.6340 0.1086 0.0059 0 0 10 0
0.6340 0.1086 0.0059 0 0 10 0
0.6200 0.1087 0.0057 0 0 10 0
0.6160 0.1084 0.0059 0 0 10 0
0.6420 0.1077 0.0051 0 0 10 0
0.6420 0.1069 0.0038 0 0 10 0
0.6240 0.1069 0.0038 0 0 10 0
0.6340 0.1058 0.0033 0 0 10 0
0.6340 0.1058 0.0033 0 0 10 0
0.6320 0.1051 0.0033 0 0 10 0
0.6320 0.1039 -0.0016 0 0 10 0
0.6320 0.1039 -0.0016 0 0 10 0
0.6520 0.1028 -0.0057 0 0 10 0
0.6580 0.1026 -0.0072 0 0 10 0
0.6400 0.1023 -0.0074 0 0 10 0
0.6400 0.1018 -0.0061 0 0 10 0
0.6400 0.1018 -0.0061 0 0 10 0
0.6360 0.1007 -0.0082 0 0 10 0
0.6360 0.1007 -0.0082 0 0 10 0
0.6240 0.0998 -0.0086 0 0 10 0
0.6420 0.0995 -0.0079 0 0 10 0
0.6420 0.0989 -0.0077 0 0 10 0
0.6420 0.0976 -0.0076 0 0 10 0
0.6420 0.0976 -0.0076 0 0 10 0
0.6460 0.0970 -0.0095 0 0 10 0
0.6460 0.0970 -0.0095 0 0 10 0
0.6460 0.0974 -0.0137 0 0 10 0
0.6520 0.0975 -0.0134 0 0 10 0
0.6520 0.0974 -0.0135 0 0 10 0
0.6440 0.0969 -0.0121 0 0 10 0
0.6440 0.0969 -0.0121 0 0 10 0
0.6600 0.0959 -0.0099 0 0 10 0
0.6500 0.0954 -0.0091 0 0 10 0
0.6480 0.0946 -0.0049 0 0 10 0
0.6480 0.0946 -0.0049 0 0 10 0
0.6420 0.0952 -0.0030 0 0 10 0
0.6420 0.0952 -0.0030 0 0 10 0
0.6440 0.0947 -0.0063 0 0 10 0
0.6320 0.0944 -0.0065 0 0 10 0
0.6120 0.0941 -0.0060 0 0 10 0
0.6060 0.0940 -0.0074 0 0 10 0
0.6060 0.0940 -0.0074 0 0 10 0
0.6420 0.0943 -0.0064 0 0 10 0
0.6480 0.0941 -0.0062 0 0 10 0
0.6440 0.0938 -0.0033 0 0 10 0
0.6440 0.0938 -0.0033 0 0 10 0
0.6440 0.0933 -0.0012 0 0 10 0
0.6440 0.0933 -0.0012 0 0 10 0
0.6520 0.0933 -0.0013 0 0 10 0
0.6520 0.0926 -0.0061 0 0 10 0
0.6580 0.0924 -0.0057 0 0 10 0
0.6680 0.0921 -0.0042 0 0 10 0
0.6580 0.0915 -0.0023 0 0 10 0
0.6560 0.0912 -0.0018 0 0 10 0
0.6560 0.0912 -0.0018 0 0 10 0
0.6860 0.0907 -0.0016 0 0 10 0
0.6680 0.0903 0.0091 0 0 10 0
0.6420 0.0899 0.0083 0 0 10 0
0.6420 0.0899 0.0083 0 0 10 0
0.6560 0.0884 0.0109 0 0 10 0
0.6560 0.0884 0.0109 0 0 10 0
0.6520 0.0878 0.0084 0 0 10 0
0.6660 0.0874 0.0084 0 0 10 0
0.6660 0.0874 0.0084 0 0 10 0
0.6520 0.0867 0.0087 0 0 10 0
0.6540 0.0860 0.0090 0 0 10 0
0.6580 0.0853 0.0096 0 0 10 0
0.6580 0.0846 0.0095 0 0 10 0
0.6640 0.0846 0.0095 0 0 10 0
0.6600 0.0838 0.0097 0 0 10 0
0.6860 0.0828 0.0089 0 0 10 0
0.6480 0.0823 0.0092 0 0 10 0
0.6640 0.0820 0.0086 0 0 10 0
0.6400 0.0817 0.0076 0 0 10 0
0.6740 0.0811 0.0092 0 0 10 0
0.6640 0.0807 0.0096 0 0 10 0
0.6640 0.0797 0.0117 0 0 10 0
0.6700 0.0793 0.0090 0 0 10 0
0.6700 0.0793 0.0090 0 0 10 0
0.6620 0.0788 0.0079 0 0 10 0
0.6620 0.0788 0.0079 0 0 10 0
0.6800 0.0787 0.0057 0 0 10 0
0.6720 0.0790 0.0036 0 0 10 0
0.6460 0.0790 0.0045 0 0 10 0
0.6460 0.0790 0.0045 0 0 10 0
0.6560 0.0789 0.0055 0 0 10 0
0.6520 0.0784 0.0060 0 0 10 0
0.6420 0.0779 0.0039 0 0 10 0
0.6720 0.0775 0.0052 0 0 10 0
0.6620 0.0770 0.0039 0 0 10 0
0.6800 0.0761 0.0035 0 0 10 0
0.6740 0.0756 0.0036 0 0 10 0
0.6680 0.0752 0.0065 0 0 10 0
0.6720 0.0749 0.0068 0 0 10 0
0.6720 0.0749 0.0068 0 0 10 0
0.6540 0.0751 -0.0004 0 0 10 0
0.6780 0.0751 -0.0000 0 0 10 0
0.6660 0.0752 0.0020 0 0 10 0
0.6560 0.0748 0.0015 0 0 10 0
0.6560 0.0748 0.0015 0 0 10 0
0.6720 0.0736 0.0025 0 0 10 0
0.6720 0.0736 0.0025 0 0 10 0
0.6420 0.0731 0.0058 0 0 10 0
0.6620 0.0726 0.0059 0 0 10 0
0.6540 0.0716 0.0023 0 0 10 0
0.6500 0.0716 0.0023 0 0 10 0
0.6780 0.0712 0.0023 0 0 10 0
0.6840 0.0712 0.0017 0 0 10 0
0.6740 0.0712 -0.0027 0 0 10 0
0.6780 0.0712 -0.0011 0 0 10 0
0.6760 0.0709 -0.0029 0 0 10 0
0.6800 0.0702 -0.0026 0 0 10 0
0.6800 0.0702 -0.0026 0 0 10 0
0.6460 0.0694 -0.0044 0 0 10 0
0.6620 0.0685 -0.0007 0 0 10 0
0.6800 0.0677 -0.0001 0 0 10 0
0.6800 0.0677 -0.0001 0 0 10 0
0.6580 0.0673 -0.0011 0 0 10 0
0.6520 0.0671 -0.0005 0 0 10 0
0.6520 0.0671 -0.0005 0 0 10 0
0.6500 0.0653 -0.0002 0 0 10 0
0.6500 0.0653 -0.0002 0 0 10 0
0.6580 0.0648 -0.0037 0 0 10 0
0.6540 0.0641 -0.0007 0 0 10 0
0.6540 0.0636 -0.0008 0 0 10 0
0.6660 0.0632 -0.0012 0 0 10 0
0.6660 0.0632 -0.0012 0 0 10 0
0.6700 0.0621 -0.0017 0 0 10 0
0.6720 0.0612 -0.0016 0 0 10 0
0.6660 0.0609 -0.0020 0 0 10 0
0.6700 0.0606 -0.0013 0 0 10 0
0.6800 0.0607 0.0009 0 0 10 0
0.6760 0.0608 0.0010 0 0 10 0
0.6760 0.0608 0.0010 0 0 10 0
0.6520 0.0608 -0.0013 0 0 10 0
0.6760 0.0601 -0.0033 0 0 10 0
0.6560 0.0596 -0.0023 0 0 10 0
0.6680 0.0596 -0.0063 0 0 10 0
0.6740 0.0599 -0.0056 0 0 10 0
0.6800 0.0600 -0.0027 0 0 10 0
0.6800 0.0600 -0.0027 0 0 10 0
0.6680 0.0594 -0.0029 0 0 10 0
0.6720 0.0590 -0.0004 0 0 10 0
0.6940 0.0584 0.0038 0 0 10 0
0.6940 0.0584 0.0038 0 0 10 0
0.7020 0.0569 0.0053 0 0 10 0
0.7020 0.0569 0.0053 0 0 10 0
0.6820 0.0569 0.0077 0 0 10 0
0.6840 0.0568 0.0086 0 0 10 0
0.6720 0.0569 0.0104 0 0 10 0
0.6720 0.0569 0.0104 0 0 10 0
0.6720 0.0564 0.0108 0 0 10 0
0.6980 0.0555 0.0062 0 0 10 0
0.7020 0.0547 0.0062 0 0 10 0
0.7080 0.0536 0.0085 0 0 10 0
0.7080 0.0536 0.0085 0 0 10 0
0.7040 0.0527 0.0084 0 0 10 0
0.7040 0.0527 0.0084 0 0 10 0
0.6940 0.0527 0.0106 0 0 10 0
0.7100 0.0526 0.0126 0 0 10 0
0.6860 0.0526 0.0133 0 0 10 0
0.6860 0.0526 0.0133 0 0 10 0
0.6940 0.0522 0.0122 0 0 10 0
0.6940 0.0515 0.0117 0 0 10 0
0.7020 0.0505 0.0119 0 0 10 0
0.7080 0.0494 0.0137 0 0 10 0
0.6940 0.0498 0.0139 0 0 10 0
0.6940 0.0498 0.0139 0 0 10 0
0.6980 0.0498 0.0135 0 0 10 0
0.7280 0.0495 0.0112 0 0 10 0
0.7160 0.0491 0.0108 0 0 10 0
0.6980 0.0484 0.0097 0 0 10 0
0.7180 0.0479 0.0063 0 0 10 0
0.7300 0.0474 0.0055 0 0 10 0
0.7300 0.0474 0.0055 0 0 10 0
0.7240 0.0470 0.0070 0 0 10 0
0.7020 0.0460 0.0098 0 0 10 0
0.7040 0.0457 0.0120 0 0 10 0
0.7180 0.0451 0.0119 0 0 10 0
0.7180 0.0451 0.0119 0 0 10 0
0.7380 0.0447 0.0147 0 0 10 0
0.7380 0.0447 0.0147 0 0 10 0
0.7280 0.0448 0.0108 0 0 10 0
0.7240 0.0439 0.0117 0 0 10 0
0.7400 0.0436 0.0112 0 0 10 0
0.7080 0.0428 0.0083 0 0 10 0
0.7020 0.0427 0.0101 0 0 10 0
0.7220 0.0426 0.0114 0 0 10 0
0.7220 0.0426 0.0114 0 0 10 0
0.7320 0.0425 0.0120 0 0 10 0
0.7320 0.0425 0.0120 0 0 10 0
0.7080 0.0417 0.0084 0 0 10 0
0.7080 0.0412 0.0086 0 0 10 0
0.7120 0.0412 0.0086 0 0 10 0
0.7180 0.0402 0.0015 0 0 10 0
0.7180 0.0402 0.0015 0 0 10 0
0.7200 0.0398 -0.0014 0 0 10 0
0.7200 0.0398 -0.0014 0 0 10 0
0.7320 0.0402 -0.0001 0 0 10 0
0.7320 0.0402 -0.0001 0 0 10 0
0.7300 0.0401 -0.0007 0 0 10 0
0.7320 0.0385 0.0015 0 0 10 0
0.7320 0.0385 0.0015 0 0 10 0
0.7380 0.0377 -0.0002 0 0 10 0
0.7280 0.0375 0.0002 0 0 10 0
0.7300 0.0379 0.0015 0 0 10 0
0.7220 0.0374 0.0004 0 0 10 0
0.7220 0.0374 0.0004 0 0 10 0
0.7200 0.0365 0.0048 0 0 10 0
0.7200 0.0365 0.0048 0 0 10 0
0.7300 0.0356 0.0097 0 0 10 0
0.7240 0.0350 0.0105 0 0 10 0
0.7140 0.0346 0.0109 0 0 10 0
0.7140 0.0346 0.0109 0 0 10 0
0.7180 0.0339 0.0134 0 0 10 0
0.6980 0.0332 0.0097 0 0 10 0
0.7200 0.0330 0.0095 0 0 10 0
0.7400 0.0329 0.0113 0 0 10 0
0.7400 0.0329 0.0113 0 0 10 0
0.7240 0.0319 0.0119 0 0 10 0
0.7240 0.0319 0.0119 0 0 10 0
0.7060 0.0314 0.0086 0 0 10 0
0.7120 0.0307 0.0087 0 0 10 0
0.7140 0.0304 0.0109 0 0 10 0
0.7120 0.0297 0.0108 0 0 10 0
0.7120 0.0297 0.0108 0 0 10 0
0.7180 0.0293 0.0122 0 0 10 0
0.7180 0.0293 0.0122 0 0 10 0
0.7100 0.0287 0.0153 0 0 10 0
0.7100 0.0287 0.0153 0 0 10 0
0.7320 0.0274 0.0139 0 0 10 0
0.7320 0.0274 0.0139 0 0 10 0
0.7080 0.0269 0.0138 0 0 10 0
0.7400 0.0266 0.0133 0 0 10 0
0.7340 0.0262 0.0115 0 0 10 0
0.7320 0.0258 0.0137 0 0 10 0
0.7300 0.0252 0.0137 0 0 10 0
0.7300 0.0252 0.0137 0 0 10 0
0.7100 0.0247 0.0150 0 0 10 0
0.7480 0.0245 0.0120 0 0 10 0
0.7300 0.0232 0.0132 0 0 10 0
0.7300 0.0232 0.0132 0 0 10 0
0.7360 0.0228 0.0127 0 0 10 0
0.7340 0.0222 0.0106 0 0 10 0
0.7200 0.0220 0.0102 0 0 10 0
0.7540 0.0221 0.0116 0 0 10 0
0.7540 0.0223 0.0115 0 0 10 0
0.7380 0.0223 0.0115 0 0 10 0
0.7160 0.0221 0.0122 0 0 10 0
0.7220 0.0218 0.0117 0 0 10 0
0.7360 0.0216 0.0113 0 0 10 0
0.7280 0.0210 0.0082 0 0 10 0
0.7260 0.0209 0.0062 0 0 10 0
0.7120 0.0212 0.0071 0 0 10 0
0.7100 0.0212 0.0071 0 0 10 0
0.7420 0.0209 0.0059 0 0 10 0
0.7480 0.0202 0.0027 0 0 10 0
0.7520 0.0193 0.0003 0 0 10 0
0.7520 0.0192 0.0005 0 0 10 0
0.7320 0.0187 -0.0033 0 0 10 0
0.7480 0.0183 -0.0035 0 0 10 0
0.7400 0.0182 -0.0016 0 0 10 0
0.7600 0.0179 -0.0049 0 0 10 0
0.7420 0.0174 -0.0077 0 0 10 0
0.7300 0.0171 -0.0094 0 0 10 0
0.7300 0.0171 -0.0094 0 0 10 0
0.7240 0.0168 -0.0070 0 0 10 0
0.7320 0.0171 -0.0087 0 0 10 0
0.7440 0.0174 -0.0075 0 0 10 0
0.7440 0.0174 -0.0075 0 0 10 0
0.7340 0.0176 -0.0033 0 0 10 0
0.7660 0.0172 -0.0017 0 0 0 0
0.7520 0.0143 -0.0013 0 0 10 0
0.7560 0.0113 0.0015 0 0 10 0
0.7400 0.0111 0.0009 0 0 10 0
0.7500 0.0107 0.0027 0 0 0 0
0.7500 0.0100 0.0020 0 0 10 0
0.7480 0.0097 -0.0020 0 0 10 0
0.7520 0.0096 -0.0013 0 0 10 0
0.7500 0.0093 0.0001 0 0 0 0
0.7380 0.0090 -0.0001 0 0 10 0
0.7620 0.0087 -0.0014 0 0 10 0
0.7540 0.0086 -0.0002 0 0 10 0
0.7540 0.0086 0.0003 0 0 10 0
0.7600 0.0084 -0.0017 0 0 0 0
0.7520 0.0077 -0.0060 0 0 10 0
0.7500 0.0075 -0.0051 0 0 0 0
