0.6100 0.1735 0.0112 0 0 10 0
0.6120 0.1729 0.0051 0 0 10 0
0.6280 0.1740 0.0108 0 0 10 0
0.6260 0.1742 0.0107 0 0 10 0
0.6260 0.1742 0.0107 0 0 10 0
0.6180 0.1741 0.0111 0 0 10 0
0.6180 0.1741 0.0111 0 0 10 0
0.6220 0.1738 0.0082 0 0 10 0
0.6220 0.1738 0.0081 0 0 10 0
0.6220 0.1734 0.0089 0 0 10 0
0.6200 0.1732 0.0090 0 0 10 0
0.6200 0.1729 0.0062 0 0 10 0
0.6000 0.1729 0.0092 0 0 10 0
0.6000 0.1729 0.0092 0 0 10 0
0.6280 0.1719 0.0104 0 0 10 0
0.6100 0.1714 0.0129 0 0 10 0
0.6160 0.1710 0.0153 0 0 10 0
0.6160 0.1710 0.0153 0 0 10 0
0.6240 0.1707 0.0155 0 0 10 0
0.6120 0.1705 0.0141 0 0 10 0
0.6080 0.1705 0.0154 0 0 10 0
0.6080 0.1707 0.0174 0 0 10 0
0.6060 0.1701 0.0172 0 0 10 0
0.6060 0.1697 0.0152 0 0 10 0
0.6180 0.1697 0.0152 0 0 10 0
0.6260 0.1682 0.0143 0 0 10 0
0.6160 0.1678 0.0141 0 0 10 0
0.6160 0.1678 0.0141 0 0 10 0
0.5940 0.1661 0.0128 0 0 10 0
0.6180 0.1659 0.0132 0 0 10 0
0.6020 0.1660 0.0135 0 0 10 0
0.6020 0.1660 0.0135 0 0 10 0
0.6020 0.1651 0.0113 0 0 10 0
0.6020 0.1646 0.0135 0 0 10 0
0.6020 0.1646 0.0135 0 0 10 0
0.6180 0.1639 0.0141 0 0 10 0
0.6260 0.1642 0.0139 0 0 10 0
0.6240 0.1646 0.0137 0 0 10 0
0.6240 0.1646 0.0137 0 0 10 0
0.6240 0.1641 0.0144 0 0 10 0
0.6240 0.1641 0.0144 0 0 10 0
0.6280 0.1638 0.0129 0 0 10 0
0.6260 0.1631 0.0137 0 0 10 0
0.6180 0.1625 0.0138 0 0 10 0
0.6140 0.1619 0.0139 0 0 10 0
0.6380 0.1614 0.0122 0 0 10 0
0.6280 0.1605 0.0132 0 0 10 0
0.6160 0.1602 0.0139 0 0 10 0
0.6160 0.1602 0.0139 0 0 10 0
0.6340 0.1597 0.0162 0 0 10 0
0.6380 0.1597 0.0166 0 0 10 0
0.6120 0.1588 0.0172 0 0 10 0
0.6300 0.1582 0.0160 0 0 10 0
0.6200 0.1576 0.0152 0 0 10 0
0.6200 0.1576 0.0152 0 0 10 0
0.6140 0.1571 0.0150 0 0 10 0
0.6140 0.1571 0.0150 0 0 10 0
0.6380 0.1564 0.0139 0 0 10 0
0.6080 0.1563 0.0150 0 0 10 0
0.6320 0.1555 0.0150 0 0 10 0
0.6060 0.1545 0.0115 0 0 10 0
0.6060 0.1545 0.0115 0 0 10 0
0.6080 0.1540 0.0108 0 0 10 0
0.6220 0.1536 0.0101 0 0 10 0
0.6220 0.1536 0.0104 0 0 10 0
0.6280 0.1537 0.0096 0 0 10 0
0.6140 0.1540 0.0096 0 0 10 0
0.6100 0.1538 0.0084 0 0 10 0
0.6100 0.1538 0.0084 0 0 10 0
0.6380 0.1537 0.0098 0 0 10 0
0.6160 0.1538 0.0103 0 0 10 0
0.6160 0.1538 0.0103 0 0 10 0
0.6100 0.1539 0.0112 0 0 10 0
0.6240 0.1534 0.0116 0 0 10 0
0.6200 0.1525 0.0116 0 0 10 0
0.6060 0.1518 0.0120 0 0 10 0
0.6100 0.1509 0.0117 0 0 10 0
0.6100 0.1509 0.0117 0 0 10 0
0.6120 0.1502 0.0114 0 0 10 0
0.6240 0.1498 0.0109 0 0 10 0
0.6140 0.1496 0.0113 0 0 10 0
0.6240 0.1499 0.0126 0 0 10 0
0.6220 0.1495 0.0128 0 0 10 0
0.6400 0.1492 0.0130 0 0 10 0
0.6320 0.1484 0.0142 0 0 10 0
0.6320 0.1484 0.0142 0 0 10 0
0.6200 0.1478 0.0130 0 0 10 0
0.6200 0.1478 0.0130 0 0 10 0
0.6240 0.1476 0.0109 0 0 10 0
0.6140 0.1470 0.0104 0 0 10 0
0.6120 0.1464 0.0104 0 0 10 0
0.6160 0.1459 0.0104 0 0 10 0
0.6160 0.1459 0.0104 0 0 10 0
0.6100 0.1450 0.0092 0 0 10 0
0.6100 0.1450 0.0092 0 0 10 0
0.6280 0.1442 0.0090 0 0 10 0
0.6100 0.1440 0.0114 0 0 10 0
0.6100 0.1440 0.0114 0 0 10 0
0.6260 0.1435 0.0108 0 0 10 0
0.6180 0.1431 0.0101 0 0 10 0
0.6220 0.1427 0.0097 0 0 10 0
0.6100 0.1421 0.0091 0 0 10 0
0.6260 0.1416 0.0090 0 0 10 0
0.6200 0.1414 0.0091 0 0 10 0
0.6200 0.1414 0.0091 0 0 10 0
0.6200 0.1408 0.0087 0 0 10 0
0.6120 0.1398 0.0083 0 0 10 0
0.6120 0.1398 0.0083 0 0 10 0
0.6240 0.1395 0.0082 0 0 10 0
0.6320 0.1387 0.0084 0 0 10 0
0.6300 0.1385 0.0085 0 0 10 0
0.6340 0.1379 0.0074 0 0 10 0
0.6260 0.1373 0.0090 0 0 10 0
0.6280 0.1369 0.0089 0 0 10 0
0.6280 0.1369 0.0089 0 0 10 0
0.6020 0.1369 0.0058 0 0 10 0
0.6100 0.1366 0.0035 0 0 10 0
0.6320 0.1364 0.0027 0 0 10 0
0.6200 0.1363 0.0025 0 0 10 0
0.6200 0.1363 0.0025 0 0 10 0
0.6320 0.1362 0.0024 0 0 10 0
0.6140 0.1362 0.0024 0 0 10 0
0.6100 0.1357 0.0002 0 0 10 0
0.6340 0.1350 0.0005 0 0 10 0
0.6320 0.1344 0.0003 0 0 10 0
0.6120 0.1337 0.0006 0 0 10 0
0.6120 0.1337 0.0006 0 0 10 0
0.6260 0.1335 0.0016 0 0 10 0
0.6160 0.1334 0.0028 0 0 10 0
0.6320 0.1336 0.0041 0 0 10 0
0.6140 0.1332 0.0058 0 0 10 0
0.6120 0.1329 0.0084 0 0 10 0
0.6120 0.1329 0.0084 0 0 10 0
0.6340 0.1325 0.0101 0 0 10 0
0.6180 0.1319 0.0106 0 0 10 0
0.6340 0.1311 0.0125 0 0 10 0
0.6400 0.1306 0.0143 0 0 10 0
0.6460 0.1300 0.0147 0 0 10 0
0.6380 0.1292 0.0139 0 0 10 0
0.6260 0.1285 0.0156 0 0 10 0
0.6100 0.1270 0.0135 0 0 10 0
0.6200 0.1270 0.0135 0 0 10 0
0.6140 0.1269 0.0139 0 0 10 0
0.6460 0.1262 0.0127 0 0 10 0
0.6460 0.1262 0.0127 0 0 10 0
0.6220 0.1259 0.0107 0 0 10 0
0.6220 0.1257 0.0117 0 0 10 0
0.6280 0.1257 0.0117 0 0 10 0
0.6340 0.1252 0.0117 0 0 10 0
0.6460 0.1246 0.0094 0 0 10 0
0.6160 0.1241 0.0088 0 0 10 0
0.6280 0.1233 0.0099 0 0 10 0
0.6260 0.1218 0.0126 0 0 10 0
0.6460 0.1221 0.0131 0 0 10 0
0.6360 0.1217 0.0125 0 0 10 0
0.6240 0.1213 0.0116 0 0 10 0
0.6240 0.1213 0.0116 0 0 10 0
0.6340 0.1207 0.0116 0 0 10 0
0.6460 0.1209 0.0118 0 0 10 0
0.6360 0.1204 0.0122 0 0 10 0
0.6140 0.1205 0.0125 0 0 10 0
0.6140 0.1198 0.0126 0 0 10 0
0.6460 0.1188 0.0155 0 0 10 0
0.6460 0.1188 0.0155 0 0 10 0
0.6340 0.1182 0.0156 0 0 10 0
0.6280 0.1173 0.0138 0 0 10 0
0.6220 0.1169 0.0138 0 0 10 0
0.6240 0.1170 0.0141 0 0 10 0
0.6280 0.1170 0.0149 0 0 10 0
0.6260 0.1166 0.0168 0 0 10 0
0.6260 0.1166 0.0168 0 0 10 0
0.6420 0.1161 0.0194 0 0 10 0
0.6320 0.1150 0.0195 0 0 10 0
0.6460 0.1143 0.0196 0 0 10 0
0.6300 0.1139 0.0195 0 0 10 0
0.6320 0.1140 0.0195 0 0 10 0
0.6280 0.1144 0.0187 0 0 10 0
0.6280 0.1144 0.0187 0 0 10 0
0.6200 0.1145 0.0189 0 0 10 0
0.6260 0.1136 0.0207 0 0 10 0
0.6480 0.1130 0.0219 0 0 10 0
0.6560 0.1120 0.0202 0 0 10 0
0.6340 0.1116 0.0253 0 0 10 0
0.6340 0.1116 0.0253 0 0 10 0
0.6440 0.1115 0.0256 0 0 10 0
0.6480 0.1121 0.0248 0 0 10 0
0.6480 0.1121 0.0248 0 0 10 0
0.6440 0.1118 0.0251 0 0 10 0
0.6420 0.1108 0.0282 0 0 10 0
0.6380 0.1102 0.0278 0 0 10 0
0.6380 0.1102 0.0278 0 0 10 0
0.6460 0.1100 0.0272 0 0 10 0
0.6360 0.1103 0.0264 0 0 10 0
0.6320 0.1101 0.0264 0 0 10 0
0.6320 0.1101 0.0264 0 0 10 0
0.6380 0.1092 0.0257 0 0 10 0
0.6360 0.1088 0.0252 0 0 10 0
0.6600 0.1079 0.0229 0 0 10 0
0.6500 0.1072 0.0219 0 0 10 0
0.6480 0.1071 0.0218 0 0 10 0
0.6480 0.1071 0.0218 0 0 10 0
0.6400 0.1067 0.0189 0 0 10 0
0.6300 0.1063 0.0187 0 0 10 0
0.6440 0.1059 0.0197 0 0 10 0
0.6440 0.1059 0.0197 0 0 10 0
0.6420 0.1044 0.0189 0 0 10 0
0.6420 0.1045 0.0185 0 0 10 0
0.6420 0.1049 0.0183 0 0 10 0
0.6320 0.1046 0.0180 0 0 10 0
0.6340 0.1043 0.0155 0 0 10 0
0.6340 0.1043 0.0155 0 0 10 0
0.6480 0.1038 0.0169 0 0 10 0
0.6480 0.1031 0.0162 0 0 10 0
0.6380 0.1024 0.0156 0 0 10 0
0.6420 0.1018 0.0155 0 0 10 0
0.6440 0.1018 0.0155 0 0 10 0
0.6480 0.1014 0.0152 0 0 10 0
0.6440 0.1006 0.0096 0 0 10 0
0.6540 0.1000 0.0093 0 0 10 0
0.6400 0.0998 0.0087 0 0 10 0
0.6440 0.0993 0.0060 0 0 10 0
0.6580 0.0987 0.0069 0 0 10 0
0.6280 0.0990 0.0063 0 0 10 0
0.6280 0.0990 0.0063 0 0 10 0
0.6480 0.0984 0.0094 0 0 10 0
0.6480 0.0984 0.0094 0 0 10 0
0.6540 0.0980 0.0098 0 0 10 0
0.6520 0.0969 0.0089 0 0 10 0
0.6560 0.0963 0.0063 0 0 10 0
0.6340 0.0961 0.0061 0 0 10 0
0.6420 0.0958 0.0090 0 0 10 0
0.6500 0.0956 0.0113 0 0 10 0
0.6400 0.0947 0.0132 0 0 10 0
0.6260 0.0944 0.0140 0 0 10 0
0.6400 0.0942 0.0145 0 0 10 0
0.6360 0.0943 0.0177 0 0 10 0
0.6360 0.0943 0.0177 0 0 10 0
0.6440 0.0938 0.0171 0 0 10 0
0.6100 0.0936 0.0161 0 0 10 0
0.6540 0.0927 0.0163 0 0 10 0
0.6420 0.0925 0.0169 0 0 10 0
0.6580 0.0922 0.0178 0 0 10 0
0.6580 0.0922 0.0178 0 0 10 0
0.6520 0.0918 0.0176 0 0 10 0
0.6300 0.0920 0.0188 0 0 10 0
0.6520 0.0922 0.0183 0 0 10 0
0.6500 0.0919 0.0166 0 0 10 0
0.6500 0.0919 0.0166 0 0 10 0
0.6440 0.0911 0.0153 0 0 10 0
0.6440 0.0911 0.0153 0 0 10 0
0.6500 0.0907 0.0152 0 0 10 0
0.6560 0.0901 0.0129 0 0 10 0
0.6800 0.0896 0.0120 0 0 10 0
0.6600 0.0888 0.0128 0 0 10 0
0.6600 0.0888 0.0128 0 0 10 0
0.6540 0.0869 0.0112 0 0 10 0
0.6540 0.0869 0.0112 0 0 10 0
0.6340 0.0859 0.0133 0 0 10 0
0.6340 0.0859 0.0133 0 0 10 0
0.6280 0.0861 0.0127 0 0 10 0
0.6280 0.0861 0.0127 0 0 10 0
0.6520 0.0859 0.0151 0 0 10 0
0.6620 0.0861 0.0177 0 0 10 0
0.6580 0.0861 0.0177 0 0 10 0
0.6620 0.0856 0.0176 0 0 10 0
0.6620 0.0856 0.0176 0 0 10 0
0.6740 0.0849 0.0196 0 0 10 0
0.6740 0.0849 0.0196 0 0 10 0
0.6800 0.0836 0.0188 0 0 10 0
0.6920 0.0829 0.0176 0 0 10 0
0.6640 0.0826 0.0174 0 0 10 0
0.6700 0.0826 0.0184 0 0 10 0
0.6700 0.0826 0.0184 0 0 10 0
0.6780 0.0818 0.0151 0 0 10 0
0.6780 0.0818 0.0151 0 0 10 0
0.6720 0.0804 0.0137 0 0 10 0
0.6800 0.0799 0.0098 0 0 10 0
0.6800 0.0799 0.0098 0 0 10 0
0.6780 0.0793 0.0107 0 0 10 0
0.6860 0.0792 0.0103 0 0 10 0
0.6600 0.0792 0.0103 0 0 10 0
0.6560 0.0789 0.0095 0 0 10 0
0.6920 0.0780 0.0126 0 0 10 0
0.6920 0.0780 0.0126 0 0 10 0
0.6840 0.0775 0.0135 0 0 10 0
0.6780 0.0771 0.0155 0 0 10 0
0.6920 0.0771 0.0157 0 0 10 0
0.6920 0.0771 0.0157 0 0 10 0
0.6880 0.0767 0.0157 0 0 10 0
0.6780 0.0765 0.0155 0 0 10 0
0.6820 0.0766 0.0152 0 0 10 0
0.6820 0.0765 0.0151 0 0 10 0
0.6960 0.0763 0.0148 0 0 10 0
0.6840 0.0763 0.0145 0 0 10 0
0.6860 0.0759 0.0141 0 0 10 0
0.6860 0.0759 0.0141 0 0 10 0
0.6760 0.0753 0.0144 0 0 10 0
0.6960 0.0746 0.0147 0 0 10 0
0.6960 0.0741 0.0161 0 0 10 0
0.6940 0.0737 0.0160 0 0 10 0
0.7040 0.0732 0.0162 0 0 10 0
0.7040 0.0732 0.0162 0 0 10 0
0.7080 0.0723 0.0173 0 0 10 0
0.6640 0.0716 0.0159 0 0 10 0
0.6700 0.0715 0.0170 0 0 10 0
0.6700 0.0715 0.0170 0 0 10 0
0.6940 0.0718 0.0165 0 0 10 0
0.6840 0.0715 0.0166 0 0 10 0
0.6760 0.0714 0.0143 0 0 10 0
0.6680 0.0712 0.0148 0 0 10 0
0.6560 0.0707 0.0148 0 0 10 0
0.6700 0.0704 0.0135 0 0 10 0
0.6700 0.0698 0.0140 0 0 10 0
0.6920 0.0698 0.0140 0 0 10 0
0.6860 0.0693 0.0166 0 0 10 0
0.6980 0.0692 0.0150 0 0 10 0
0.6980 0.0695 0.0154 0 0 10 0
0.6860 0.0690 0.0165 0 0 10 0
0.6860 0.0690 0.0165 0 0 10 0
0.6720 0.0682 0.0169 0 0 10 0
0.6860 0.0675 0.0168 0 0 10 0
0.6940 0.0668 0.0182 0 0 10 0
0.6760 0.0661 0.0185 0 0 10 0
0.6760 0.0661 0.0185 0 0 10 0
0.6960 0.0654 0.0169 0 0 10 0
0.6900 0.0643 0.0166 0 0 10 0
0.6920 0.0636 0.0160 0 0 10 0
0.6820 0.0632 0.0157 0 0 10 0
0.6880 0.0628 0.0168 0 0 10 0
0.6780 0.0623 0.0168 0 0 10 0
0.6780 0.0623 0.0168 0 0 10 0
0.6780 0.0623 0.0183 0 0 10 0
0.6920 0.0612 0.0188 0 0 10 0
0.6960 0.0603 0.0183 0 0 10 0
0.7000 0.0594 0.0182 0 0 10 0
0.7000 0.0594 0.0182 0 0 10 0
0.6800 0.0592 0.0174 0 0 10 0
0.6820 0.0589 0.0159 0 0 10 0
0.6920 0.0589 0.0159 0 0 10 0
0.6880 0.0587 0.0157 0 0 10 0
0.6820 0.0584 0.0145 0 0 10 0
0.6920 0.0577 0.0143 0 0 10 0
0.7100 0.0572 0.0146 0 0 10 0
0.7100 0.0572 0.0146 0 0 10 0
0.6880 0.0577 0.0133 0 0 10 0
0.7020 0.0582 0.0120 0 0 10 0
0.7020 0.0577 0.0137 0 0 10 0
0.6780 0.0571 0.0100 0 0 10 0
0.6780 0.0571 0.0100 0 0 10 0
0.6920 0.0563 0.0088 0 0 10 0
0.6800 0.0552 0.0119 0 0 10 0
0.7040 0.0543 0.0120 0 0 10 0
0.7040 0.0539 0.0119 0 0 10 0
0.6920 0.0537 0.0153 0 0 10 0
0.6920 0.0537 0.0153 0 0 10 0
0.7040 0.0540 0.0150 0 0 10 0
0.6820 0.0541 0.0155 0 0 10 0
0.6840 0.0534 0.0154 0 0 10 0
0.6880 0.0526 0.0168 0 0 10 0
0.6880 0.0526 0.0168 0 0 10 0
0.6800 0.0518 0.0163 0 0 10 0
0.7000 0.0516 0.0186 0 0 10 0
0.7140 0.0514 0.0191 0 0 10 0
0.6960 0.0514 0.0239 0 0 10 0
0.6960 0.0509 0.0226 0 0 10 0
0.6960 0.0509 0.0226 0 0 10 0
0.6960 0.0504 0.0242 0 0 10 0
0.7160 0.0498 0.0258 0 0 10 0
0.7220 0.0494 0.0237 0 0 10 0
0.7120 0.0490 0.0226 0 0 10 0
0.7120 0.0490 0.0226 0 0 10 0
0.7140 0.0488 0.0237 0 0 10 0
0.7100 0.0485 0.0231 0 0 10 0
0.7200 0.0482 0.0229 0 0 10 0
0.7180 0.0468 0.0225 0 0 10 0
0.7240 0.0461 0.0221 0 0 10 0
0.7120 0.0456 0.0227 0 0 10 0
0.7120 0.0456 0.0227 0 0 10 0
0.6820 0.0457 0.0228 0 0 10 0
0.7200 0.0458 0.0207 0 0 10 0
0.7080 0.0452 0.0190 0 0 10 0
0.7160 0.0444 0.0188 0 0 10 0
0.7260 0.0444 0.0205 0 0 10 0
0.7260 0.0444 0.0205 0 0 10 0
0.7220 0.0440 0.0221 0 0 10 0
0.7020 0.0438 0.0222 0 0 10 0
0.7120 0.0438 0.0222 0 0 10 0
0.7120 0.0438 0.0222 0 0 10 0
0.6960 0.0431 0.0229 0 0 10 0
0.6960 0.0431 0.0229 0 0 10 0
0.6840 0.0427 0.0232 0 0 10 0
0.6840 0.0424 0.0193 0 0 10 0
0.6900 0.0419 0.0186 0 0 10 0
0.6980 0.0415 0.0187 0 0 10 0
0.6980 0.0415 0.0187 0 0 10 0
0.7120 0.0408 0.0124 0 0 10 0
0.7080 0.0405 0.0109 0 0 10 0
0.7080 0.0402 0.0116 0 0 10 0
0.7080 0.0397 0.0104 0 0 10 0
0.7080 0.0397 0.0104 0 0 10 0
0.7220 0.0392 0.0113 0 0 10 0
0.7220 0.0392 0.0113 0 0 10 0
0.7040 0.0385 0.0116 0 0 10 0
0.7040 0.0380 0.0133 0 0 10 0
0.7240 0.0374 0.0137 0 0 10 0
0.6900 0.0369 0.0145 0 0 10 0
0.6900 0.0369 0.0145 0 0 10 0
0.7100 0.0364 0.0128 0 0 10 0
0.7100 0.0364 0.0128 0 0 10 0
0.7020 0.0360 0.0136 0 0 10 0
0.7020 0.0352 0.0119 0 0 10 0
0.7120 0.0352 0.0119 0 0 10 0
0.7140 0.0349 0.0119 0 0 10 0
0.7140 0.0349 0.0119 0 0 10 0
0.7160 0.0347 0.0120 0 0 10 0
0.7020 0.0347 0.0120 0 0 10 0
0.6980 0.0343 0.0114 0 0 10 0
0.6980 0.0343 0.0114 0 0 10 0
0.7260 0.0335 0.0128 0 0 10 0
0.7260 0.0335 0.0128 0 0 10 0
0.7220 0.0326 0.0150 0 0 10 0
0.7280 0.0318 0.0150 0 0 10 0
0.7120 0.0314 0.0178 0 0 10 0
0.7120 0.0314 0.0178 0 0 10 0
0.7100 0.0304 0.0161 0 0 10 0
0.7100 0.0304 0.0161 0 0 10 0
0.7360 0.0300 0.0180 0 0 10 0
0.7200 0.0298 0.0144 0 0 10 0
0.7120 0.0294 0.0137 0 0 10 0
0.7120 0.0294 0.0137 0 0 10 0
0.7080 0.0294 0.0112 0 0 10 0
0.7200 0.0288 0.0079 0 0 10 0
0.7500 0.0286 0.0060 0 0 10 0
0.7300 0.0282 0.0060 0 0 10 0
0.7300 0.0282 0.0060 0 0 10 0
0.7260 0.0273 0.0069 0 0 10 0
0.7260 0.0273 0.0069 0 0 10 0
0.7360 0.0269 0.0055 0 0 10 0
0.7460 0.0263 0.0074 0 0 10 0
0.7260 0.0257 0.0089 0 0 10 0
0.7280 0.0252 0.0087 0 0 10 0
0.7280 0.0252 0.0087 0 0 10 0
0.7240 0.0240 0.0073 0 0 10 0
0.7240 0.0240 0.0073 0 0 10 0
0.7380 0.0236 0.0074 0 0 10 0
0.7220 0.0230 0.0087 0 0 10 0
0.7220 0.0226 0.0091 0 0 10 0
0.7360 0.0220 0.0093 0 0 10 0
0.7360 0.0220 0.0093 0 0 10 0
0.7200 0.0213 0.0093 0 0 10 0
0.7340 0.0213 0.0070 0 0 10 0
0.6980 0.0210 0.0072 0 0 10 0
0.7360 0.0204 0.0072 0 0 10 0
0.6960 0.0197 0.0071 0 0 10 0
0.6960 0.0197 0.0071 0 0 10 0
0.7320 0.0192 0.0011 0 0 10 0
0.7140 0.0185 0.0009 0 0 10 0
0.7360 0.0174 -0.0012 0 0 10 0
0.7200 0.0170 0.0000 0 0 10 0
0.7200 0.0170 0.0000 0 0 10 0
0.7180 0.0173 0.0017 0 0 10 0
0.7180 0.0173 0.0030 0 0 10 0
0.7100 0.0172 -0.0001 0 0 10 0
0.7300 0.0170 0.0002 0 0 10 0
0.7100 0.0166 0.0026 0 0 10 0
0.7100 0.0166 0.0026 0 0 10 0
0.7380 0.0161 0.0033 0 0 10 0
0.7320 0.0157 0.0066 0 0 10 0
0.7020 0.0147 0.0067 0 0 0 0
0.7420 0.0112 0.0118 0 0 10 0
0.7180 0.0113 0.0154 0 0 10 0
0.7440 0.0093 0.0202 0 0 10 0
0.7500 0.0096 0.0168 0 0 0 0
0.7580 0.0112 0.0112 0 0 10 0
0.7580 0.0105 0.0115 0 0 10 0
0.7580 0.0105 0.0115 0 0 10 0
0.7600 0.0101 0.0108 0 0 0 0
0.7380 0.0095 0.0078 0 0 10 0
0.7440 0.0091 0.0012 0 0 10 0
0.7380 0.0095 0.0008 0 0 0 0
0.7320 0.0098 0.0038 0 0 10 0
0.7300 0.0089 0.0067 0 0 10 0
0.7260 0.0077 0.0063 0 0 0 0
