0.6927 -2.3275 -0.0088 0 30 0 0
0.6425 -2.3259 -0.0067 0 30 0 0
0.6313 -2.3268 -0.0051 0 30 0 0
0.6536 -2.3273 -0.0057 0 30 0 0
0.6201 -2.3271 -0.0064 0 30 0 0
0.6201 -2.3271 -0.0064 0 30 0 0
0.6480 -2.3269 -0.0071 0 30 0 0
0.6089 -2.3272 -0.0075 0 30 0 0
0.5866 -2.3272 -0.0080 0 30 0 0
0.5866 -2.3273 -0.0085 0 30 0 0
0.5922 -2.3273 -0.0085 0 30 0 0
0.6313 -2.3269 -0.0085 0 30 0 0
0.6145 -2.3269 -0.0089 0 30 0 0
0.6313 -2.3273 -0.0088 0 30 0 0
0.6313 -2.3273 -0.0088 0 30 0 0
0.6536 -2.3267 -0.0080 0 30 0 0
0.6369 -2.3262 -0.0085 0 30 0 0
0.6369 -2.3262 -0.0085 0 30 0 0
0.6480 -2.3261 -0.0080 0 30 0 0
0.6313 -2.3263 -0.0081 0 30 0 0
0.6480 -2.3267 -0.0077 0 30 0 0
0.6480 -2.3267 -0.0077 0 30 0 0
0.6872 -2.3271 -0.0080 0 30 0 0
0.6704 -2.3271 -0.0081 0 30 0 0
0.6760 -2.3269 -0.0068 0 30 0 0
0.6983 -2.3269 -0.0071 0 30 0 0
0.6592 -2.3273 -0.0049 0 30 0 0
0.6592 -2.3278 -0.0048 0 30 0 0
0.6648 -2.3278 -0.0048 0 30 0 0
0.6592 -2.3276 -0.0025 0 30 0 0
0.6536 -2.3280 -0.0029 0 30 0 0
0.6536 -2.3276 -0.0024 0 30 0 0
0.6480 -2.3276 -0.0024 0 30 0 0
0.6536 -2.3272 -0.0022 0 30 0 0
0.6704 -2.3271 -0.0008 0 30 0 0
0.6480 -2.3269 -0.0010 0 30 0 0
0.6592 -2.3272 -0.0013 0 30 0 0
0.6592 -2.3272 -0.0013 0 30 0 0
0.6313 -2.3271 -0.0016 0 30 0 0
0.6480 -2.3269 -0.0002 0 30 0 0
0.6927 -2.3268 -0.0020 0 30 0 0
0.6927 -2.3268 -0.0020 0 30 0 0
0.6592 -2.3269 -0.0007 0 30 0 0
0.6760 -2.3269 -0.0007 0 30 0 0
0.6369 -2.3266 -0.0007 0 30 0 0
0.6425 -2.3266 -0.0011 0 30 0 0
0.6425 -2.3266 -0.0011 0 30 0 0
0.6313 -2.3264 -0.0017 0 30 0 0
0.6536 -2.3262 -0.0026 0 30 0 0
0.6704 -2.3259 -0.0022 0 30 0 0
0.6704 -2.3259 -0.0022 0 30 0 0
0.6760 -2.3258 -0.0027 0 30 0 0
0.6816 -2.3258 -0.0019 0 30 0 0
0.6704 -2.3257 -0.0023 0 30 0 0
0.6816 -2.3259 -0.0031 0 30 0 0
0.6816 -2.3259 -0.0031 0 30 0 0
0.6704 -2.3260 -0.0038 0 30 0 0
0.6592 -2.3264 -0.0048 0 30 0 0
0.6592 -2.3266 -0.0053 0 30 0 0
0.6592 -2.3269 -0.0054 0 30 0 0
0.6480 -2.3267 -0.0052 0 30 0 0
0.6480 -2.3267 -0.0052 0 30 0 0
0.6927 -2.3267 -0.0054 0 30 0 0
0.6872 -2.3271 -0.0050 0 30 0 0
0.6760 -2.3269 -0.0051 0 30 0 0
0.6760 -2.3269 -0.0051 0 30 0 0
0.6648 -2.3269 -0.0050 0 30 0 0
0.6704 -2.3264 -0.0051 0 30 0 0
0.6369 -2.3264 -0.0052 0 30 0 0
0.6872 -2.3264 -0.0051 0 30 0 0
0.7039 -2.3267 -0.0045 0 30 0 0
0.7039 -2.3267 -0.0045 0 30 0 0
0.6313 -2.3264 -0.0046 0 30 0 0
0.6872 -2.3257 -0.0041 0 30 0 0
0.6816 -2.3255 -0.0026 0 30 0 0
0.6816 -2.3255 -0.0026 0 30 0 0
0.6648 -2.3257 -0.0028 0 30 0 0
0.6704 -2.3262 -0.0024 0 30 0 0
0.6480 -2.3263 -0.0020 0 30 0 0
0.6145 -2.3263 -0.0017 0 30 0 0
0.6425 -2.3264 -0.0018 0 30 0 0
0.6425 -2.3263 -0.0032 0 30 0 0
0.6425 -2.3263 -0.0032 0 30 0 0
0.6536 -2.3263 -0.0031 0 30 0 0
0.6592 -2.3260 -0.0034 0 30 0 0
0.6313 -2.3262 -0.0036 0 30 0 0
0.6480 -2.3263 -0.0053 0 30 0 0
0.6480 -2.3263 -0.0053 0 30 0 0
0.6145 -2.3262 -0.0057 0 30 0 0
0.6145 -2.3260 -0.0062 0 30 0 0
0.6257 -2.3262 -0.0066 0 30 0 0
0.6257 -2.3262 -0.0066 0 30 0 0
0.6592 -2.3262 -0.0067 0 30 0 0
0.6536 -2.3263 -0.0065 0 30 0 0
0.6536 -2.3266 -0.0069 0 30 0 0
0.6536 -2.3266 -0.0069 0 30 0 0
0.6425 -2.3267 -0.0073 0 0 0 0
0.6313 -2.3262 -0.0094 0 30 0 0
0.6369 -2.3255 -0.0106 0 30 0 0
0.6257 -2.3257 -0.0118 0 30 0 0
0.6816 -2.3256 -0.0112 0 30 0 0
0.6816 -2.3256 -0.0112 0 30 0 0
0.6927 -2.3255 -0.0114 0 30 0 0
0.6592 -2.3255 -0.0128 0 30 0 0
0.6480 -2.3253 -0.0147 0 30 0 0
0.6480 -2.3253 -0.0147 0 30 0 0
0.6927 -2.3255 -0.0147 0 30 0 0
0.6648 -2.3262 -0.0160 0 30 0 0
0.6592 -2.3265 -0.0157 0 30 0 0
0.6983 -2.3265 -0.0152 0 30 0 0
0.6983 -2.3265 -0.0152 0 30 0 0
0.6760 -2.3256 -0.0156 0 30 0 0
0.6760 -2.3256 -0.0156 0 30 0 0
0.6648 -2.3253 -0.0156 0 30 0 0
0.6480 -2.3253 -0.0158 0 30 0 0
0.6201 -2.3258 -0.0158 0 30 0 0
0.6201 -2.3258 -0.0158 0 30 0 0
0.6313 -2.3262 -0.0173 0 30 0 0
0.6313 -2.3265 -0.0173 0 30 0 0
0.6816 -2.3265 -0.0173 0 30 0 0
0.6872 -2.3263 -0.0171 0 30 0 0
0.6872 -2.3263 -0.0171 0 30 0 0
0.6704 -2.3262 -0.0167 0 30 0 0
0.6592 -2.3260 -0.0163 0 30 0 0
0.6480 -2.3264 -0.0159 0 30 0 0
0.6536 -2.3264 -0.0158 0 30 0 0
0.6592 -2.3264 -0.0158 0 30 0 0
0.7039 -2.3262 -0.0152 0 30 0 0
0.6760 -2.3267 -0.0150 0 30 0 0
0.6872 -2.3268 -0.0160 0 30 0 0
0.6536 -2.3267 -0.0160 0 30 0 0
0.6536 -2.3267 -0.0160 0 30 0 0
0.6201 -2.3265 -0.0145 0 30 0 0
0.6201 -2.3265 -0.0145 0 30 0 0
0.6704 -2.3265 -0.0137 0 30 0 0
0.6704 -2.3266 -0.0128 0 30 0 0
0.6648 -2.3264 -0.0138 0 30 0 0
0.6648 -2.3264 -0.0138 0 30 0 0
0.6872 -2.3267 -0.0136 0 30 0 0
0.6872 -2.3267 -0.0136 0 30 0 0
0.6648 -2.3269 -0.0136 0 30 0 0
0.7039 -2.3272 -0.0136 0 30 0 0
0.6145 -2.3274 -0.0137 0 30 0 0
0.6145 -2.3274 -0.0137 0 30 0 0
0.6983 -2.3275 -0.0130 0 30 0 0
0.6872 -2.3273 -0.0131 0 30 0 0
0.6592 -2.3272 -0.0142 0 30 0 0
0.6592 -2.3272 -0.0142 0 30 0 0
0.6257 -2.3274 -0.0143 0 30 0 0
0.6648 -2.3271 -0.0142 0 30 0 0
0.6536 -2.3269 -0.0140 0 30 0 0
0.6536 -2.3269 -0.0140 0 30 0 0
0.6536 -2.3268 -0.0153 0 30 0 0
0.6872 -2.3267 -0.0170 0 30 0 0
0.6313 -2.3267 -0.0170 0 30 0 0
0.6425 -2.3262 -0.0181 0 30 0 0
0.6425 -2.3262 -0.0181 0 30 0 0
0.6648 -2.3262 -0.0141 0 30 0 0
0.6648 -2.3262 -0.0141 0 30 0 0
0.6089 -2.3258 -0.0140 0 30 0 0
0.6089 -2.3258 -0.0140 0 30 0 0
0.6592 -2.3257 -0.0126 0 30 0 0
0.6480 -2.3257 -0.0126 0 30 0 0
0.6201 -2.3257 -0.0130 0 30 0 0
0.6369 -2.3259 -0.0132 0 30 0 0
0.6592 -2.3262 -0.0117 0 30 0 0
0.6592 -2.3262 -0.0117 0 30 0 0
0.6369 -2.3267 -0.0120 0 30 0 0
0.6369 -2.3272 -0.0117 0 30 0 0
0.6760 -2.3272 -0.0126 0 30 0 0
0.6760 -2.3272 -0.0126 0 30 0 0
0.6536 -2.3267 -0.0128 0 30 0 0
0.6425 -2.3267 -0.0122 0 30 0 0
0.6369 -2.3264 -0.0123 0 30 0 0
0.6760 -2.3262 -0.0132 0 30 0 0
0.6760 -2.3262 -0.0132 0 30 0 0
0.6425 -2.3262 -0.0131 0 30 0 0
0.6313 -2.3265 -0.0106 0 30 0 0
0.6313 -2.3265 -0.0106 0 30 0 0
0.6760 -2.3269 -0.0106 0 30 0 0
0.6313 -2.3268 -0.0103 0 30 0 0
0.6089 -2.3268 -0.0103 0 30 0 0
0.6201 -2.3266 -0.0093 0 30 0 0
0.6145 -2.3263 -0.0090 0 30 0 0
0.6089 -2.3260 -0.0092 0 30 0 0
0.6089 -2.3260 -0.0092 0 30 0 0
0.6145 -2.3256 -0.0083 0 30 0 0
0.5978 -2.3260 -0.0082 0 30 0 0
0.5978 -2.3260 -0.0082 0 30 0 0
0.6034 -2.3266 -0.0087 0 30 0 0
0.5810 -2.3266 -0.0105 0 30 0 0
0.5922 -2.3262 -0.0110 0 30 0 0
0.6257 -2.3260 -0.0164 0 0 0 0
0.6257 -2.3266 -0.0144 0 30 0 0
0.6089 -2.3271 -0.0135 0 30 0 0
0.6034 -2.3268 -0.0136 0 30 0 0
0.6369 -2.3262 -0.0111 0 30 0 0
0.6369 -2.3260 -0.0110 0 30 0 0
0.6369 -2.3260 -0.0110 0 30 0 0
0.6313 -2.3260 -0.0092 0 30 0 0
0.5922 -2.3262 -0.0090 0 30 0 0
0.6257 -2.3265 -0.0084 0 30 0 0
0.6257 -2.3265 -0.0084 0 30 0 0
0.6201 -2.3267 -0.0077 0 30 0 0
0.5922 -2.3265 -0.0078 0 30 0 0
0.5922 -2.3265 -0.0078 0 30 0 0
0.6592 -2.3260 -0.0084 0 30 0 0
0.6201 -2.3257 -0.0073 0 30 0 0
0.6089 -2.3256 -0.0076 0 30 0 0
0.5978 -2.3259 -0.0075 0 30 0 0
0.5978 -2.3259 -0.0075 0 30 0 0
0.6089 -2.3262 -0.0097 0 30 0 0
0.6034 -2.3265 -0.0092 0 30 0 0
0.5810 -2.3264 -0.0091 0 30 0 0
0.5810 -2.3262 -0.0115 0 30 0 0
0.6313 -2.3262 -0.0115 0 30 0 0
0.5978 -2.3262 -0.0115 0 30 0 0
0.6201 -2.3263 -0.0111 0 30 0 0
0.5922 -2.3263 -0.0115 0 30 0 0
0.5922 -2.3263 -0.0115 0 30 0 0
0.6369 -2.3260 -0.0126 0 30 0 0
0.6034 -2.3257 -0.0128 0 30 0 0
0.6369 -2.3260 -0.0123 0 30 0 0
0.6369 -2.3260 -0.0123 0 30 0 0
0.6201 -2.3264 -0.0124 0 30 0 0
0.6313 -2.3262 -0.0122 0 30 0 0
0.5922 -2.3257 -0.0123 0 30 0 0
0.6257 -2.3252 -0.0124 0 30 0 0
0.6257 -2.3252 -0.0124 0 30 0 0
0.6369 -2.3252 -0.0131 0 30 0 0
0.5866 -2.3253 -0.0129 0 30 0 0
0.5866 -2.3256 -0.0122 0 30 0 0
0.6145 -2.3256 -0.0120 0 30 0 0
0.6145 -2.3256 -0.0120 0 30 0 0
0.5587 -2.3260 -0.0120 0 30 0 0
0.5754 -2.3263 -0.0104 0 30 0 0
0.5754 -2.3263 -0.0104 0 30 0 0
0.5642 -2.3266 -0.0107 0 30 0 0
0.6089 -2.3266 -0.0115 0 30 0 0
0.6313 -2.3267 -0.0113 0 30 0 0
0.6034 -2.3264 -0.0116 0 30 0 0
0.6034 -2.3264 -0.0116 0 30 0 0
0.5866 -2.3258 -0.0121 0 30 0 0
0.6034 -2.3255 -0.0164 0 30 0 0
0.5978 -2.3255 -0.0222 0 30 0 0
0.5978 -2.3255 -0.0222 0 30 0 0
0.5810 -2.3260 -0.0218 0 0 0 0
0.5587 -2.3271 -0.0158 0 30 0 0
0.6034 -2.3268 -0.0162 0 30 0 0
0.5978 -2.3269 -0.0160 0 30 0 0
0.6034 -2.3267 -0.0157 0 30 0 0
0.6034 -2.3268 -0.0158 0 30 0 0
0.6034 -2.3270 -0.0159 0 30 0 0
0.5978 -2.3270 -0.0159 0 30 0 0
0.5922 -2.3272 -0.0156 0 30 0 0
0.5531 -2.3269 -0.0161 0 30 0 0
0.6034 -2.3264 -0.0170 0 30 0 0
0.6034 -2.3267 -0.0165 0 30 0 0
0.6034 -2.3267 -0.0165 0 30 0 0
0.5754 -2.3267 -0.0154 0 30 0 0
0.5810 -2.3266 -0.0157 0 30 0 0
0.5978 -2.3269 -0.0211 0 30 0 0
0.5978 -2.3269 -0.0211 0 30 0 0
0.5866 -2.3265 -0.0197 0 30 0 0
0.6089 -2.3259 -0.0196 0 30 0 0
0.6089 -2.3259 -0.0196 0 0 0 0
0.5978 -2.3256 -0.0180 0 30 0 0
0.5810 -2.3252 -0.0127 0 30 0 0
0.5866 -2.3253 -0.0135 0 30 0 0
0.5866 -2.3253 -0.0135 0 30 0 0
0.5587 -2.3262 -0.0108 0 30 0 0
0.5754 -2.3262 -0.0096 0 30 0 0
0.5754 -2.3262 -0.0096 0 30 0 0
0.5810 -2.3263 -0.0080 0 30 0 0
0.5698 -2.3265 -0.0072 0 30 0 0
0.5531 -2.3264 -0.0037 0 30 0 0
0.5531 -2.3259 -0.0028 0 30 0 0
0.5978 -2.3258 -0.0033 0 30 0 0
0.5978 -2.3258 -0.0033 0 30 0 0
0.6089 -2.3253 -0.0045 0 30 0 0
0.6089 -2.3245 -0.0046 0 30 0 0
0.6313 -2.3242 -0.0050 0 30 0 0
0.6313 -2.3242 -0.0050 0 30 0 0
0.6480 -2.3243 -0.0046 0 30 0 0
0.5866 -2.3246 -0.0039 0 30 0 0
0.5866 -2.3246 -0.0039 0 30 0 0
0.5810 -2.3260 -0.0053 0 30 0 0
0.5810 -2.3265 -0.0026 0 30 0 0
0.5754 -2.3268 -0.0033 0 30 0 0
0.5754 -2.3268 -0.0033 0 30 0 0
0.5866 -2.3274 -0.0013 0 30 0 0
0.6145 -2.3276 -0.0003 0 30 0 0
0.6257 -2.3279 -0.0011 0 30 0 0
0.6257 -2.3279 -0.0011 0 30 0 0
0.5922 -2.3280 -0.0024 0 30 0 0
0.5642 -2.3281 -0.0022 0 30 0 0
0.5587 -2.3277 -0.0022 0 30 0 0
0.5587 -2.3277 -0.0022 0 30 0 0
0.6089 -2.3271 -0.0024 0 0 0 0
0.6089 -2.3272 -0.0021 0 0 0 30
0.5866 -2.3269 -0.0055 0 0 0 30
0.5866 -2.3269 -0.0055 0 0 0 0
0.6201 -2.3269 -0.0042 0 0 0 30
0.6034 -2.3267 0.0017 0 0 0 30
0.5978 -2.3266 -0.0000 0 0 0 30
0.5587 -2.3264 0.0004 0 0 0 0
0.5866 -2.3277 0.0029 0 30 0 0
0.5810 -2.3273 0.0037 0 30 0 0
0.6145 -2.3264 0.0045 0 30 0 0
0.5754 -2.3263 0.0035 0 30 0 0
0.5866 -2.3264 0.0035 0 30 0 0
0.5698 -2.3266 0.0035 0 30 0 0
0.5698 -2.3266 0.0035 0 30 0 0
0.5531 -2.3265 0.0043 0 30 0 0
0.5754 -2.3269 0.0049 0 30 0 0
0.6034 -2.3269 0.0050 0 30 0 0
0.6034 -2.3269 0.0069 0 30 0 0
0.5475 -2.3269 0.0069 0 30 0 0
0.5475 -2.3269 0.0071 0 30 0 0
0.5754 -2.3266 0.0076 0 30 0 0
0.5810 -2.3265 0.0072 0 30 0 0
0.5810 -2.3265 0.0072 0 30 0 0
0.5810 -2.3266 0.0080 0 30 0 0
0.5978 -2.3267 0.0076 0 30 0 0
0.6369 -2.3267 0.0067 0 30 0 0
0.6369 -2.3267 0.0067 0 30 0 0
0.5698 -2.3267 0.0059 0 30 0 0
0.5475 -2.3266 0.0051 0 30 0 0
0.5698 -2.3267 0.0026 0 30 0 0
0.5810 -2.3267 0.0020 0 30 0 0
0.5810 -2.3267 0.0020 0 30 0 0
0.5642 -2.3265 0.0031 0 30 0 0
0.5754 -2.3265 0.0029 0 30 0 0
0.5866 -2.3262 0.0030 0 30 0 0
0.5866 -2.3265 0.0027 0 30 0 0
0.5866 -2.3265 0.0027 0 30 0 0
0.6034 -2.3273 0.0025 0 30 0 0
0.5866 -2.3272 0.0022 0 30 0 0
0.5922 -2.3272 0.0022 0 30 0 0
0.5922 -2.3272 0.0028 0 30 0 0
0.6034 -2.3270 0.0026 0 30 0 0
0.6089 -2.3265 0.0020 0 30 0 0
0.5922 -2.3260 0.0018 0 30 0 0
0.5922 -2.3260 0.0018 0 30 0 0
0.5866 -2.3253 0.0012 0 30 0 0
0.5754 -2.3253 0.0009 0 30 0 0
0.5922 -2.3256 -0.0012 0 30 0 0
0.5922 -2.3256 -0.0012 0 30 0 0
0.6034 -2.3264 -0.0015 0 30 0 0
0.5922 -2.3272 -0.0035 0 30 0 0
0.5810 -2.3272 -0.0040 0 30 0 0
0.6201 -2.3268 -0.0068 0 30 0 0
0.6201 -2.3265 -0.0068 0 30 0 0
0.6201 -2.3265 -0.0068 0 30 0 0
0.6257 -2.3263 -0.0057 0 30 0 0
0.5642 -2.3263 -0.0057 0 30 0 0
0.5698 -2.3265 -0.0046 0 30 0 0
0.5698 -2.3276 -0.0037 0 30 0 0
0.6201 -2.3276 -0.0037 0 30 0 0
0.5642 -2.3271 -0.0039 0 30 0 0
0.5754 -2.3267 -0.0054 0 30 0 0
0.6145 -2.3261 -0.0057 0 30 0 0
0.5866 -2.3262 -0.0064 0 30 0 0
0.5866 -2.3262 -0.0064 0 30 0 0
0.6145 -2.3265 -0.0067 0 30 0 0
0.5642 -2.3264 -0.0075 0 30 0 0
0.5866 -2.3266 -0.0076 0 30 0 0
0.6034 -2.3266 -0.0077 0 30 0 0
0.6034 -2.3264 -0.0083 0 30 0 0
0.6201 -2.3263 -0.0081 0 30 0 0
0.6201 -2.3263 -0.0081 0 30 0 0
0.5978 -2.3264 -0.0086 0 30 0 0
0.5754 -2.3264 -0.0091 0 30 0 0
0.5754 -2.3265 -0.0102 0 30 0 0
0.6034 -2.3262 -0.0105 0 30 0 0
0.6034 -2.3262 -0.0105 0 30 0 0
0.5698 -2.3262 -0.0090 0 30 0 0
0.5642 -2.3258 -0.0092 0 30 0 0
0.5754 -2.3257 -0.0095 0 30 0 0
0.5754 -2.3257 -0.0095 0 30 0 0
0.5810 -2.3258 -0.0094 0 30 0 0
0.5810 -2.3257 -0.0088 0 30 0 0
0.5754 -2.3258 -0.0089 0 30 0 0
0.5754 -2.3258 -0.0089 0 30 0 0
0.5754 -2.3260 -0.0092 0 30 0 0
0.5810 -2.3265 -0.0093 0 30 0 0
0.5810 -2.3267 -0.0089 0 30 0 0
0.5810 -2.3267 -0.0089 0 30 0 0
0.6201 -2.3267 -0.0087 0 30 0 0
0.5922 -2.3262 -0.0084 0 30 0 0
0.5754 -2.3258 -0.0086 0 30 0 0
0.5754 -2.3258 -0.0086 0 30 0 0
0.5922 -2.3253 -0.0092 0 30 0 0
0.5754 -2.3256 -0.0100 0 30 0 0
0.6145 -2.3257 -0.0098 0 30 0 0
0.6313 -2.3256 -0.0073 0 30 0 0
0.6313 -2.3252 -0.0076 0 30 0 0
0.6425 -2.3252 -0.0076 0 30 0 0
0.5866 -2.3251 -0.0107 0 30 0 0
0.5978 -2.3250 -0.0107 0 30 0 0
0.6034 -2.3248 -0.0086 0 30 0 0
0.6034 -2.3248 -0.0086 0 30 0 0
0.5642 -2.3249 -0.0082 0 30 0 0
0.5587 -2.3253 -0.0065 0 30 0 0
0.5307 -2.3257 -0.0062 0 30 0 0
0.6145 -2.3260 -0.0042 0 30 0 0
0.6145 -2.3260 -0.0042 0 30 0 0
0.6034 -2.3258 -0.0044 0 30 0 0
0.5922 -2.3256 -0.0042 0 30 0 0
0.5922 -2.3256 -0.0042 0 30 0 0
0.5475 -2.3257 -0.0046 0 30 0 0
0.5754 -2.3259 -0.0039 0 30 0 0
0.6369 -2.3259 -0.0040 0 30 0 0
0.6369 -2.3259 -0.0040 0 30 0 0
0.5698 -2.3264 -0.0045 0 30 0 0
0.5922 -2.3265 -0.0047 0 30 0 0
0.5922 -2.3265 -0.0047 0 30 0 0
0.5810 -2.3265 -0.0050 0 30 0 0
0.5698 -2.3264 -0.0055 0 30 0 0
0.5866 -2.3265 -0.0056 0 30 0 0
0.5698 -2.3267 -0.0057 0 30 0 0
0.5698 -2.3267 -0.0057 30 30 0 0
0.6034 -2.3262 -0.0068 30 30 0 0
0.6034 -2.3262 -0.0068 30 30 0 0
0.6034 -2.3266 -0.0057 30 0 0 0
0.6034 -2.3266 -0.0057 30 0 0 0
0.5810 -2.3266 -0.0055 30 0 0 0
0.5754 -2.3271 -0.0049 30 0 0 0
0.5922 -2.3269 -0.0042 0 0 0 0
0.5922 -2.3262 -0.0037 0 30 0 0
0.5866 -2.3266 -0.0039 0 30 0 0
0.6034 -2.3273 -0.0031 0 30 0 0
0.6034 -2.3273 -0.0031 0 30 0 0
0.5810 -2.3271 -0.0047 0 30 0 0
0.5866 -2.3270 -0.0046 0 30 0 0
0.5531 -2.3270 -0.0046 0 30 0 0
0.5754 -2.3264 -0.0041 0 30 0 0
0.5754 -2.3264 -0.0041 0 30 0 0
0.5587 -2.3259 -0.0050 0 30 0 0
0.5587 -2.3259 -0.0050 0 30 0 0
0.5866 -2.3260 -0.0054 0 30 0 0
0.5866 -2.3264 -0.0053 0 30 0 0
0.5754 -2.3266 -0.0057 0 30 0 0
0.5475 -2.3266 -0.0057 0 30 0 0
0.5363 -2.3267 -0.0057 0 30 0 0
0.5363 -2.3267 -0.0057 0 30 0 0
0.5922 -2.3263 -0.0057 0 30 0 0
0.5754 -2.3266 -0.0060 0 30 0 0
0.5531 -2.3267 -0.0075 0 30 0 0
0.5307 -2.3270 -0.0077 0 30 0 0
0.5698 -2.3270 -0.0068 0 30 0 0
0.5698 -2.3270 -0.0068 0 30 0 0
0.5531 -2.3270 -0.0066 0 30 0 0
0.5698 -2.3269 -0.0065 30 30 0 0
0.5866 -2.3267 -0.0072 30 30 0 0
0.5866 -2.3267 -0.0072 30 30 0 0
0.5475 -2.3267 -0.0070 30 30 0 0
0.5642 -2.3270 -0.0083 30 30 0 0
0.5754 -2.3274 -0.0081 30 30 0 0
0.5754 -2.3274 -0.0081 30 30 0 0
0.5587 -2.3280 -0.0110 0 30 0 0
0.5531 -2.3280 -0.0112 0 30 0 0
0.5810 -2.3282 -0.0142 0 30 0 0
0.5810 -2.3282 -0.0142 0 30 0 0
0.5810 -2.3276 -0.0141 0 30 0 0
0.5866 -2.3271 -0.0131 0 30 0 0
0.6034 -2.3267 -0.0129 0 30 0 0
0.5754 -2.3265 -0.0117 0 30 0 0
0.5587 -2.3267 -0.0117 0 30 0 0
0.5587 -2.3267 -0.0117 0 30 0 0
0.5698 -2.3270 -0.0082 0 30 0 0
0.5978 -2.3271 -0.0080 0 30 0 0
0.5587 -2.3274 -0.0082 0 30 0 0
0.5587 -2.3274 -0.0082 0 30 0 0
0.5698 -2.3274 -0.0082 30 30 0 0
0.5698 -2.3271 -0.0084 30 30 0 0
0.5754 -2.3271 -0.0092 30 30 0 0
0.5754 -2.3271 -0.0092 30 30 0 0
0.5642 -2.3269 -0.0096 30 30 0 0
0.6034 -2.3269 -0.0088 30 30 0 0
0.6145 -2.3272 -0.0089 30 0 0 0
0.6313 -2.3273 -0.0099 0 0 0 0
0.5978 -2.3262 -0.0066 0 30 0 0
0.6145 -2.3276 -0.0120 0 30 0 0
0.6145 -2.3281 -0.0082 0 30 0 0
0.5810 -2.3280 -0.0082 0 30 0 0
0.5810 -2.3279 -0.0071 0 30 0 0
0.5754 -2.3279 -0.0071 0 30 0 0
0.5754 -2.3278 -0.0065 0 30 0 0
0.6089 -2.3279 -0.0068 0 30 0 0
0.6257 -2.3279 -0.0061 0 30 0 0
0.6257 -2.3279 -0.0061 0 30 0 0
0.5978 -2.3279 -0.0062 0 30 0 0
0.5866 -2.3275 -0.0065 0 30 0 0
0.5866 -2.3275 -0.0065 0 30 0 0
0.5866 -2.3271 -0.0081 0 30 0 0
0.5754 -2.3269 -0.0081 0 30 0 0
0.6201 -2.3269 -0.0065 0 30 0 0
0.5754 -2.3267 -0.0070 0 30 0 0
0.5978 -2.3271 -0.0040 0 30 0 0
0.5978 -2.3271 -0.0040 0 30 0 0
0.6369 -2.3272 -0.0037 30 30 0 0
0.5866 -2.3272 -0.0011 30 30 0 0
0.5978 -2.3269 -0.0012 30 30 0 0
0.5978 -2.3269 -0.0012 30 30 0 0
0.6201 -2.3267 -0.0012 30 30 0 0
0.5978 -2.3272 0.0010 30 30 0 0
0.5810 -2.3276 0.0015 30 30 0 0
0.5810 -2.3276 0.0015 30 30 0 0
0.5978 -2.3278 0.0004 30 30 0 0
0.5587 -2.3270 0.0002 30 30 0 0
0.5866 -2.3265 -0.0002 0 30 0 0
0.5754 -2.3263 -0.0004 0 30 0 0
0.5754 -2.3263 -0.0004 0 30 0 0
0.5810 -2.3266 -0.0010 0 30 0 0
0.6201 -2.3273 -0.0016 0 30 0 0
0.5810 -2.3278 -0.0000 0 30 0 0
0.5810 -2.3278 -0.0000 0 30 0 0
0.5810 -2.3284 -0.0003 0 30 0 0
0.6089 -2.3282 -0.0005 0 30 0 0
0.6480 -2.3278 -0.0004 30 30 0 0
0.6480 -2.3278 -0.0004 30 30 0 0
0.6313 -2.3272 0.0002 30 30 0 0
0.6145 -2.3271 -0.0011 30 30 0 0
0.6145 -2.3272 -0.0018 30 30 0 0
0.6145 -2.3272 -0.0018 30 30 0 0
0.6034 -2.3271 -0.0017 0 30 0 0
0.5922 -2.3270 -0.0014 0 30 0 0
0.5754 -2.3267 -0.0016 0 30 0 0
0.5754 -2.3267 -0.0016 0 30 0 0
0.6089 -2.3264 -0.0008 0 30 0 0
0.5922 -2.3265 -0.0013 0 30 0 0
0.5810 -2.3264 -0.0019 0 30 0 0
0.5698 -2.3268 -0.0031 0 30 0 0
0.5587 -2.3265 -0.0032 0 30 0 0
0.5866 -2.3266 -0.0008 0 30 0 0
0.5754 -2.3263 -0.0010 0 30 0 0
0.5754 -2.3262 -0.0007 0 30 0 0
0.5587 -2.3261 -0.0030 0 30 0 0
0.5587 -2.3261 -0.0030 0 30 0 0
0.5419 -2.3257 -0.0039 0 30 0 0
0.5754 -2.3252 -0.0085 0 30 0 0
0.5419 -2.3250 -0.0078 0 30 0 0
0.5419 -2.3250 -0.0078 0 30 0 0
0.5531 -2.3253 -0.0090 0 30 0 0
0.5140 -2.3255 -0.0091 0 30 0 0
0.5642 -2.3255 -0.0063 0 30 0 0
0.5642 -2.3255 -0.0063 0 30 0 0
0.5587 -2.3257 -0.0054 0 30 0 0
0.5698 -2.3262 -0.0021 0 30 0 0
0.5698 -2.3262 -0.0023 0 30 0 0
0.5698 -2.3262 -0.0023 0 30 0 0
0.5922 -2.3262 -0.0022 0 30 0 0
0.5922 -2.3263 -0.0024 0 30 0 0
0.5475 -2.3269 0.0005 0 30 0 0
0.5754 -2.3272 0.0020 0 30 0 0
0.5531 -2.3270 0.0012 0 30 0 0
0.5754 -2.3262 0.0027 30 30 0 0
0.5754 -2.3262 0.0027 30 30 0 0
0.5754 -2.3262 0.0027 30 0 0 0
0.5698 -2.3263 0.0023 30 0 0 0
0.5698 -2.3266 0.0020 30 0 0 0
0.5698 -2.3266 0.0020 30 0 0 0
0.5587 -2.3264 0.0054 30 0 0 0
0.5531 -2.3262 0.0049 30 0 0 0
0.5084 -2.3264 0.0026 30 0 0 0
0.5140 -2.3267 0.0019 30 0 0 0
0.5140 -2.3273 0.0002 30 0 0 0
0.5140 -2.3273 0.0002 30 0 0 0
0.5475 -2.3279 0.0011 30 0 0 0
0.5810 -2.3272 0.0020 30 0 0 0
0.5531 -2.3267 0.0011 30 0 0 0
0.5531 -2.3267 0.0011 30 0 0 0
0.5810 -2.3262 0.0014 0 0 0 0
0.5754 -2.3263 0.0009 30 0 0 0
0.5866 -2.3251 0.0027 30 0 0 0
0.5587 -2.3245 0.0025 30 0 0 0
0.5698 -2.3249 0.0024 30 0 0 0
0.5698 -2.3251 0.0020 30 0 0 0
0.5698 -2.3251 0.0020 30 0 0 0
0.5922 -2.3252 0.0018 30 0 0 0
0.6089 -2.3250 -0.0005 30 0 0 0
0.6257 -2.3251 -0.0007 30 0 0 0
0.6257 -2.3251 -0.0007 30 0 0 0
0.5810 -2.3253 -0.0008 30 0 0 0
0.5866 -2.3253 -0.0008 30 0 0 0
0.5810 -2.3257 -0.0009 30 0 0 0
0.5810 -2.3257 -0.0009 30 0 0 0
0.5642 -2.3258 -0.0009 30 0 0 0
0.5810 -2.3260 -0.0014 0 0 0 0
0.5698 -2.3252 -0.0022 0 30 0 0
0.5698 -2.3261 -0.0050 0 30 0 0
0.6089 -2.3265 -0.0078 0 30 0 0
0.6089 -2.3260 -0.0074 0 30 0 0
0.5866 -2.3260 -0.0074 0 30 0 0
0.5587 -2.3262 -0.0102 0 30 0 0
0.5587 -2.3265 -0.0101 0 30 0 0
0.5642 -2.3268 -0.0093 0 30 0 0
0.5642 -2.3268 -0.0093 0 30 0 0
0.5531 -2.3270 -0.0096 0 30 0 0
0.5866 -2.3278 -0.0099 0 30 0 0
0.5866 -2.3278 -0.0096 0 30 0 0
0.5866 -2.3278 -0.0096 0 30 0 0
0.5587 -2.3280 -0.0096 0 30 0 0
0.5978 -2.3284 -0.0113 0 30 0 0
0.5866 -2.3285 -0.0110 30 30 0 0
0.5810 -2.3287 -0.0108 30 30 0 0
0.5810 -2.3287 -0.0108 30 30 0 0
0.5922 -2.3288 -0.0118 30 30 0 0
0.5698 -2.3280 -0.0131 30 30 0 0
0.5642 -2.3269 -0.0131 30 30 0 0
0.5642 -2.3269 -0.0131 30 30 0 0
0.5978 -2.3258 -0.0136 30 30 0 0
0.6034 -2.3255 -0.0134 30 30 0 0
0.5978 -2.3257 -0.0143 30 30 0 0
0.5810 -2.3262 -0.0141 30 30 0 0
0.5810 -2.3262 -0.0147 30 30 0 0
0.5866 -2.3262 -0.0147 0 30 0 0
0.5922 -2.3264 -0.0146 0 30 0 0
0.5866 -2.3263 -0.0171 0 30 0 0
0.6034 -2.3261 -0.0169 0 30 0 0
0.6034 -2.3261 -0.0169 0 30 0 0
0.6313 -2.3261 -0.0180 0 30 0 0
0.5754 -2.3261 -0.0208 0 0 0 0
0.5419 -2.3266 -0.0192 30 0 0 0
0.5642 -2.3266 -0.0174 30 0 0 0
0.5698 -2.3270 -0.0171 30 0 0 0
0.5698 -2.3270 -0.0171 30 0 0 0
0.5754 -2.3271 -0.0198 30 0 0 0
0.5698 -2.3273 -0.0196 30 0 0 0
0.5922 -2.3271 -0.0221 30 0 0 0
0.5642 -2.3268 -0.0216 30 0 0 0
0.5642 -2.3268 -0.0216 30 0 0 0
0.5922 -2.3266 -0.0204 30 0 0 0
0.5978 -2.3267 -0.0186 30 0 0 0
0.5475 -2.3269 -0.0183 30 0 0 0
0.5475 -2.3269 -0.0183 0 0 0 0
0.5922 -2.3268 -0.0179 0 30 0 0
0.5978 -2.3266 -0.0159 0 30 0 0
0.5978 -2.3266 -0.0159 0 30 0 0
0.6089 -2.3267 -0.0156 0 30 0 0
0.6034 -2.3265 -0.0155 0 30 0 0
0.5978 -2.3258 -0.0147 0 30 0 0
0.5978 -2.3258 -0.0147 0 30 0 0
0.5587 -2.3252 -0.0149 0 30 0 0
0.5698 -2.3255 -0.0143 0 30 0 0
0.5698 -2.3253 -0.0162 0 30 0 0
0.5866 -2.3253 -0.0162 0 30 0 0
0.5866 -2.3255 -0.0157 0 30 0 0
0.5475 -2.3260 -0.0149 0 30 0 0
0.5754 -2.3264 -0.0154 0 30 0 0
0.5754 -2.3264 -0.0154 0 30 0 0
0.5698 -2.3263 -0.0152 0 30 0 0
0.5587 -2.3261 -0.0142 0 30 0 0
0.5587 -2.3260 -0.0138 0 30 0 0
0.5531 -2.3260 -0.0136 0 30 0 0
0.5531 -2.3260 -0.0136 0 30 0 0
0.5698 -2.3258 -0.0130 0 30 0 0
0.5754 -2.3253 -0.0128 0 30 0 0
0.5866 -2.3256 -0.0126 0 30 0 0
0.5866 -2.3256 -0.0126 0 30 0 0
0.5698 -2.3258 -0.0115 0 30 0 0
0.5754 -2.3256 -0.0112 0 0 0 0
0.5810 -2.3256 -0.0107 0 30 0 0
0.5531 -2.3262 -0.0118 0 30 0 0
0.5642 -2.3266 -0.0124 0 30 0 0
0.5363 -2.3266 -0.0139 0 30 0 0
0.5754 -2.3271 -0.0130 0 30 0 0
0.5307 -2.3273 -0.0148 0 30 0 0
0.5307 -2.3273 -0.0148 0 30 0 0
0.5587 -2.3278 -0.0152 0 30 0 0
0.5698 -2.3278 -0.0158 0 30 0 0
0.6313 -2.3275 -0.0159 0 30 0 0
0.6313 -2.3275 -0.0159 0 30 0 0
0.6089 -2.3273 -0.0192 0 30 0 0
0.6089 -2.3268 -0.0181 0 30 0 0
0.5866 -2.3266 -0.0195 0 30 0 0
0.5754 -2.3265 -0.0204 0 30 0 0
0.5754 -2.3265 -0.0204 0 30 0 0
0.5363 -2.3269 -0.0213 0 30 0 0
0.5810 -2.3266 -0.0230 0 30 0 0
0.5698 -2.3268 -0.0224 0 30 0 0
0.5698 -2.3268 -0.0224 0 30 0 0
0.6034 -2.3266 -0.0236 0 30 0 0
0.5810 -2.3267 -0.0234 0 30 0 0
0.6145 -2.3267 -0.0238 0 30 0 0
0.5642 -2.3266 -0.0236 0 30 0 0
0.5307 -2.3264 -0.0239 0 30 0 0
0.5307 -2.3264 -0.0239 0 30 0 0
0.5754 -2.3269 -0.0240 0 30 0 0
0.5587 -2.3272 -0.0231 0 30 0 0
0.5587 -2.3272 -0.0231 0 30 0 0
0.5810 -2.3269 -0.0242 0 30 0 0
0.5642 -2.3266 -0.0235 0 30 0 0
0.5754 -2.3267 -0.0221 0 30 0 0
0.6034 -2.3268 -0.0225 0 30 0 0
0.6034 -2.3268 -0.0225 0 30 0 0
0.5978 -2.3267 -0.0188 0 30 0 0
0.6089 -2.3264 -0.0175 0 30 0 0
0.6089 -2.3264 -0.0175 0 30 0 0
0.5922 -2.3263 -0.0172 0 30 0 0
0.5698 -2.3260 -0.0173 0 30 0 0
0.6034 -2.3255 -0.0162 0 30 0 0
0.6145 -2.3254 -0.0161 0 30 0 0
0.5866 -2.3253 -0.0169 0 30 0 0
0.5866 -2.3253 -0.0169 0 30 0 0
0.6089 -2.3257 -0.0160 0 30 0 0
0.6089 -2.3255 -0.0140 0 30 0 0
0.6201 -2.3254 -0.0137 0 30 0 0
0.6201 -2.3254 -0.0137 0 30 0 0
0.6201 -2.3254 -0.0127 0 30 0 0
0.6034 -2.3253 -0.0115 0 30 0 0
0.5810 -2.3255 -0.0114 0 30 0 0
0.6089 -2.3259 -0.0110 0 30 0 0
0.6145 -2.3258 -0.0110 0 30 0 0
0.6145 -2.3258 -0.0109 0 30 0 0
0.5922 -2.3258 -0.0108 0 30 0 0
0.5922 -2.3254 -0.0121 0 30 0 0
0.5978 -2.3250 -0.0120 0 30 0 0
0.5978 -2.3250 -0.0120 0 30 0 0
0.5978 -2.3246 -0.0116 0 30 0 0
0.6089 -2.3243 -0.0115 0 30 0 0
0.5754 -2.3243 -0.0122 0 30 0 0
0.5754 -2.3243 -0.0122 0 30 0 0
0.5922 -2.3249 -0.0125 0 30 0 0
0.5587 -2.3255 -0.0127 0 30 0 0
0.5810 -2.3262 -0.0126 0 30 0 0
0.5810 -2.3262 -0.0126 0 30 0 0
0.5810 -2.3264 -0.0138 0 30 0 0
0.5531 -2.3264 -0.0139 0 30 0 0
0.5922 -2.3267 -0.0134 0 30 0 0
0.5922 -2.3267 -0.0134 0 30 0 0
0.5978 -2.3265 -0.0138 0 30 0 0
0.5922 -2.3267 -0.0141 0 30 0 0
0.5587 -2.3267 -0.0139 0 30 0 0
0.5587 -2.3267 -0.0139 0 30 0 0
0.5698 -2.3271 -0.0140 0 30 0 0
0.5754 -2.3274 -0.0139 0 30 0 0
0.5866 -2.3269 -0.0139 0 30 0 0
0.5866 -2.3269 -0.0139 0 30 0 0
0.5810 -2.3265 -0.0134 0 30 0 0
0.5866 -2.3264 -0.0135 0 30 0 0
0.5587 -2.3262 -0.0148 0 30 0 0
0.6313 -2.3268 -0.0151 0 30 0 0
0.5810 -2.3272 -0.0147 0 30 0 0
0.5810 -2.3272 -0.0147 0 30 0 0
0.5810 -2.3274 -0.0149 0 30 0 0
0.5754 -2.3274 -0.0172 0 30 0 0
0.6089 -2.3262 -0.0182 0 30 0 0
0.5866 -2.3262 -0.0182 0 30 0 0
0.5698 -2.3261 -0.0177 0 30 0 0
0.6201 -2.3261 -0.0174 0 30 0 0
0.5978 -2.3263 -0.0163 0 30 0 0
0.5978 -2.3263 -0.0163 0 30 0 0
0.5978 -2.3267 -0.0156 0 30 0 0
0.5810 -2.3268 -0.0140 0 30 0 0
0.5642 -2.3269 -0.0135 0 30 0 0
0.5642 -2.3269 -0.0135 0 30 0 0
0.5698 -2.3269 -0.0129 0 30 0 0
0.5866 -2.3272 -0.0127 0 30 0 0
0.5754 -2.3274 -0.0122 0 30 0 0
0.5698 -2.3278 -0.0125 0 30 0 0
0.5698 -2.3278 -0.0125 0 30 0 0
0.5866 -2.3278 -0.0131 0 30 0 0
0.5978 -2.3277 -0.0140 0 30 0 0
0.5810 -2.3273 -0.0138 0 30 0 0
0.6257 -2.3274 -0.0142 0 30 0 0
0.6145 -2.3276 -0.0138 0 30 0 0
0.5754 -2.3274 -0.0130 0 30 0 0
0.5866 -2.3273 -0.0130 0 30 0 0
0.5642 -2.3276 -0.0119 0 30 0 0
0.6145 -2.3276 -0.0120 0 30 0 0
0.6145 -2.3276 -0.0120 0 30 0 0
0.5978 -2.3268 -0.0124 0 30 0 0
0.5866 -2.3267 -0.0125 0 30 0 0
0.5978 -2.3267 -0.0123 0 30 0 0
0.5978 -2.3267 -0.0123 0 30 0 0
0.5419 -2.3270 -0.0121 0 30 0 0
0.5531 -2.3270 -0.0127 0 30 0 0
0.5754 -2.3269 -0.0110 0 30 0 0
0.5754 -2.3269 -0.0110 0 30 0 0
0.5642 -2.3266 -0.0107 0 30 0 0
0.5698 -2.3260 -0.0092 0 30 0 0
0.5922 -2.3258 -0.0091 0 30 0 0
0.5922 -2.3260 -0.0080 0 30 0 0
0.5922 -2.3259 -0.0082 0 30 0 0
0.5587 -2.3256 -0.0081 0 30 0 0
0.5587 -2.3256 -0.0081 0 30 0 0
0.5922 -2.3255 -0.0081 0 30 0 0
0.5866 -2.3253 -0.0066 0 30 0 0
0.6201 -2.3250 -0.0063 0 30 0 0
0.6201 -2.3250 -0.0068 0 30 0 0
0.5978 -2.3253 -0.0065 0 30 0 0
0.5978 -2.3265 -0.0084 0 30 0 0
0.5866 -2.3271 -0.0081 0 30 0 0
0.5866 -2.3271 -0.0081 0 30 0 0
0.5866 -2.3272 -0.0088 0 30 0 0
0.5642 -2.3271 -0.0076 0 30 0 0
0.6034 -2.3264 -0.0075 0 30 0 0
0.5978 -2.3262 -0.0080 0 30 0 0
0.5922 -2.3264 -0.0083 0 30 0 0
0.5475 -2.3262 -0.0080 0 30 0 0
0.5754 -2.3261 -0.0079 0 30 0 0
0.5754 -2.3261 -0.0079 0 30 0 0
0.5642 -2.3263 -0.0091 0 30 0 0
0.5531 -2.3266 -0.0087 30 30 0 0
0.5810 -2.3270 -0.0074 30 30 0 0
0.5810 -2.3270 -0.0074 30 30 0 0
0.5922 -2.3269 -0.0076 30 30 0 0
0.5754 -2.3272 -0.0085 30 30 0 0
0.5922 -2.3270 -0.0091 30 30 0 0
0.5866 -2.3267 -0.0085 30 30 0 0
0.5866 -2.3267 -0.0085 30 30 0 0
0.6034 -2.3263 -0.0088 30 30 0 0
0.6201 -2.3263 -0.0086 30 30 0 0
0.6089 -2.3269 -0.0082 30 30 0 0
0.6089 -2.3269 -0.0082 30 30 0 0
0.5698 -2.3273 -0.0076 30 30 0 0
0.5698 -2.3276 -0.0090 0 30 0 0
0.5754 -2.3274 -0.0083 0 30 0 0
0.5754 -2.3271 -0.0095 0 30 0 0
0.6034 -2.3270 -0.0093 0 30 0 0
0.5866 -2.3273 -0.0108 0 30 0 0
0.5866 -2.3273 -0.0108 0 30 0 0
0.5642 -2.3273 -0.0108 0 30 0 0
0.5698 -2.3274 -0.0118 0 30 0 0
0.5922 -2.3271 -0.0116 0 30 0 0
0.5922 -2.3271 -0.0116 0 30 0 0
0.5698 -2.3273 -0.0145 0 30 0 0
0.5922 -2.3270 -0.0153 0 30 0 0
0.5810 -2.3267 -0.0151 0 30 0 0
0.5810 -2.3267 -0.0151 0 30 0 0
0.5810 -2.3269 -0.0152 0 30 0 0
0.5587 -2.3273 -0.0149 0 30 0 0
0.5587 -2.3276 -0.0139 0 30 0 0
0.5587 -2.3276 -0.0139 0 30 0 0
0.5475 -2.3274 -0.0133 0 30 0 0
0.5866 -2.3273 -0.0132 0 30 0 0
0.5587 -2.3273 -0.0127 0 30 0 0
0.5587 -2.3273 -0.0127 0 30 0 0
0.5754 -2.3273 -0.0121 0 30 0 0
0.5363 -2.3271 -0.0118 0 30 0 0
0.5475 -2.3272 -0.0129 0 30 0 0
0.5475 -2.3272 -0.0129 0 30 0 0
0.5978 -2.3275 -0.0127 0 30 0 0
0.5698 -2.3274 -0.0125 0 30 0 0
0.5587 -2.3277 -0.0122 0 30 0 0
0.5475 -2.3278 -0.0118 0 30 0 0
0.5810 -2.3273 -0.0115 0 30 0 0
0.5866 -2.3270 -0.0116 0 30 0 0
0.5698 -2.3269 -0.0128 0 30 0 0
0.5642 -2.3273 -0.0128 0 30 0 0
0.5754 -2.3273 -0.0126 0 30 0 0
0.5754 -2.3273 -0.0126 0 30 0 0
0.5922 -2.3269 -0.0123 0 30 0 0
0.5922 -2.3269 -0.0123 0 30 0 0
0.5978 -2.3262 -0.0117 0 30 0 0
0.6145 -2.3260 -0.0133 0 30 0 0
0.5642 -2.3262 -0.0126 0 30 0 0
0.5922 -2.3263 -0.0152 0 30 0 0
0.5922 -2.3263 -0.0152 0 30 0 0
0.5642 -2.3259 -0.0144 0 30 0 0
0.5587 -2.3260 -0.0135 0 30 0 0
0.5810 -2.3263 -0.0152 0 30 0 0
0.5810 -2.3263 -0.0152 0 30 0 0
0.5363 -2.3264 -0.0154 0 30 0 0
0.5642 -2.3263 -0.0153 0 30 0 0
0.5363 -2.3262 -0.0144 0 30 0 0
0.5363 -2.3262 -0.0144 0 30 0 0
0.5475 -2.3262 -0.0160 0 30 0 0
0.5307 -2.3264 -0.0159 0 30 0 0
0.5028 -2.3270 -0.0112 0 30 0 0
0.5028 -2.3270 -0.0112 0 30 0 0
0.5531 -2.3267 -0.0108 0 30 0 0
0.5363 -2.3263 -0.0081 0 30 0 0
0.5363 -2.3263 -0.0081 0 30 0 0
0.5810 -2.3256 -0.0081 0 30 0 0
0.5922 -2.3252 -0.0082 0 30 0 0
0.5810 -2.3251 -0.0082 0 30 0 0
0.5531 -2.3255 -0.0079 0 30 0 0
0.5531 -2.3255 -0.0079 0 30 0 0
0.5698 -2.3260 -0.0079 0 30 0 0
0.5140 -2.3267 -0.0081 0 30 0 0
0.5866 -2.3264 -0.0086 0 30 0 0
0.5866 -2.3264 -0.0086 0 30 0 0
0.5307 -2.3263 -0.0086 0 30 0 0
0.5642 -2.3260 -0.0086 0 30 0 0
0.5363 -2.3255 -0.0087 0 30 0 0
0.5363 -2.3255 -0.0087 0 30 0 0
0.5475 -2.3253 -0.0079 0 30 0 0
0.5140 -2.3252 -0.0072 0 30 0 0
0.5642 -2.3255 -0.0065 0 30 0 0
0.5587 -2.3261 -0.0064 0 30 0 0
0.5531 -2.3264 -0.0041 0 30 0 0
0.5531 -2.3264 -0.0041 0 30 0 0
0.5587 -2.3264 -0.0045 0 30 0 0
0.5531 -2.3266 -0.0011 0 30 0 0
0.5642 -2.3263 -0.0006 0 30 0 0
0.5642 -2.3263 -0.0006 0 30 0 0
0.5307 -2.3260 0.0008 0 30 0 0
0.5307 -2.3262 0.0032 0 30 0 0
0.5307 -2.3262 0.0032 0 30 0 0
0.5251 -2.3272 0.0028 0 30 0 0
0.5419 -2.3276 0.0026 0 30 0 0
0.5475 -2.3277 0.0059 0 30 0 0
0.5698 -2.3280 0.0052 0 30 0 0
0.5698 -2.3280 0.0052 0 30 0 0
0.5419 -2.3278 0.0074 0 30 0 0
0.5419 -2.3272 0.0075 0 30 0 0
0.5251 -2.3266 0.0105 0 30 0 0
0.5475 -2.3262 0.0099 0 30 0 0
0.5307 -2.3260 0.0099 0 30 0 0
0.5307 -2.3260 0.0099 0 30 0 0
0.5475 -2.3262 0.0104 0 30 0 0
0.4916 -2.3261 0.0125 0 30 0 0
0.5140 -2.3262 0.0121 0 30 0 0
0.5140 -2.3262 0.0121 0 30 0 0
0.5475 -2.3258 0.0138 0 30 0 0
0.5363 -2.3256 0.0149 0 30 0 0
0.5531 -2.3257 0.0147 0 30 0 0
0.5531 -2.3257 0.0147 0 30 0 0
0.5419 -2.3262 0.0145 0 30 0 0
0.5084 -2.3263 0.0136 0 30 0 0
0.5419 -2.3257 0.0136 0 30 0 0
0.5419 -2.3258 0.0120 0 30 0 0
0.5698 -2.3258 0.0120 0 30 0 0
0.5587 -2.3255 0.0135 0 30 0 0
0.5363 -2.3253 0.0125 0 30 0 0
0.5587 -2.3252 0.0128 0 30 0 0
0.5587 -2.3252 0.0128 0 30 0 0
0.5251 -2.3252 0.0127 0 30 0 0
0.5196 -2.3255 0.0131 0 30 0 0
0.5531 -2.3262 0.0129 0 30 0 0
0.5810 -2.3267 0.0125 0 30 0 0
0.5419 -2.3267 0.0086 0 30 0 0
0.5419 -2.3268 0.0073 0 30 0 0
0.5196 -2.3268 0.0073 0 30 0 0
0.5754 -2.3268 0.0048 0 30 0 0
0.5698 -2.3269 0.0038 0 30 0 0
0.5196 -2.3269 0.0041 0 30 0 0
0.5196 -2.3269 0.0041 0 30 0 0
0.5475 -2.3269 0.0035 0 30 0 0
0.5531 -2.3262 0.0031 0 30 0 0
0.5531 -2.3259 0.0029 0 30 0 0
0.5475 -2.3258 -0.0000 0 30 0 0
0.5475 -2.3258 -0.0000 0 30 0 0
0.5531 -2.3262 -0.0000 0 30 0 0
0.5810 -2.3263 -0.0000 0 30 0 0
0.5363 -2.3263 -0.0008 30 30 0 0
0.5363 -2.3263 -0.0008 30 30 0 0
0.5307 -2.3267 -0.0051 30 30 0 0
0.5810 -2.3271 -0.0088 30 30 0 0
0.5307 -2.3272 -0.0088 30 30 0 0
0.5531 -2.3275 -0.0064 30 30 0 0
0.5531 -2.3275 -0.0064 30 30 0 0
0.5587 -2.3275 -0.0066 30 30 0 0
0.5419 -2.3272 -0.0045 30 30 0 0
0.5866 -2.3269 -0.0049 30 30 0 0
0.5419 -2.3269 -0.0040 30 30 0 0
0.5419 -2.3269 -0.0040 30 30 0 0
0.5419 -2.3266 -0.0044 30 30 0 0
0.5642 -2.3269 -0.0035 0 30 0 0
0.5196 -2.3270 -0.0036 0 30 0 0
0.5196 -2.3270 -0.0036 0 30 0 0
0.4972 -2.3267 -0.0034 0 30 0 0
0.5307 -2.3265 -0.0015 0 30 0 0
0.5531 -2.3265 -0.0018 0 30 0 0
0.5531 -2.3263 0.0000 30 30 0 0
0.4972 -2.3264 -0.0001 30 30 0 0
0.4972 -2.3264 -0.0001 30 30 0 0
0.5307 -2.3269 0.0008 30 30 0 0
0.5196 -2.3271 0.0008 30 30 0 0
0.5363 -2.3274 -0.0004 30 30 0 0
0.5363 -2.3274 -0.0004 30 30 0 0
0.5642 -2.3273 -0.0002 0 30 0 0
0.5419 -2.3271 0.0002 0 30 0 0
0.5028 -2.3270 0.0000 0 30 0 0
0.5251 -2.3267 -0.0004 0 30 0 0
0.5307 -2.3265 -0.0010 0 30 0 0
0.5307 -2.3262 -0.0015 0 30 0 0
0.5084 -2.3262 -0.0015 0 30 0 0
0.5363 -2.3262 -0.0016 0 30 0 0
0.5475 -2.3267 -0.0040 0 30 0 0
0.5475 -2.3267 -0.0040 0 30 0 0
0.5196 -2.3271 -0.0042 0 30 0 0
0.5028 -2.3274 -0.0045 0 30 0 0
0.4972 -2.3275 -0.0047 0 30 0 0
0.5307 -2.3272 -0.0043 0 30 0 0
0.5475 -2.3266 -0.0032 0 30 0 0
0.5196 -2.3260 -0.0033 0 30 0 0
0.5196 -2.3260 -0.0033 0 30 0 0
0.5251 -2.3257 -0.0042 0 30 0 0
0.5642 -2.3259 -0.0045 0 30 0 0
0.5196 -2.3263 -0.0029 0 30 0 0
0.5475 -2.3264 -0.0034 0 30 0 0
0.5810 -2.3265 -0.0025 0 30 0 0
0.5810 -2.3265 -0.0025 0 30 0 0
0.5307 -2.3269 -0.0018 0 30 0 0
0.5140 -2.3276 -0.0026 30 30 0 0
0.5698 -2.3281 -0.0030 30 30 0 0
0.5698 -2.3281 -0.0030 30 30 0 0
0.5363 -2.3282 -0.0048 30 30 0 0
0.5698 -2.3278 -0.0041 30 30 0 0
0.5531 -2.3274 -0.0045 30 30 0 0
0.5531 -2.3274 -0.0045 30 30 0 0
0.5587 -2.3266 -0.0038 30 30 0 0
0.5754 -2.3262 -0.0040 30 30 0 0
0.5978 -2.3264 -0.0051 0 30 0 0
0.5978 -2.3264 -0.0051 0 30 0 0
0.5587 -2.3269 -0.0084 0 30 0 0
0.5810 -2.3266 -0.0088 0 30 0 0
0.5810 -2.3266 -0.0088 0 30 0 0
0.5531 -2.3264 -0.0092 0 30 0 0
0.5531 -2.3264 -0.0092 0 30 0 0
0.5587 -2.3265 -0.0104 0 30 0 0
0.5196 -2.3271 -0.0106 0 30 0 0
0.5196 -2.3271 -0.0106 0 30 0 0
0.5307 -2.3274 -0.0082 0 30 0 0
0.5307 -2.3277 -0.0084 30 30 0 0
0.5587 -2.3275 -0.0051 30 30 0 0
0.5251 -2.3274 -0.0050 30 30 0 0
0.5251 -2.3274 -0.0050 30 30 0 0
0.5084 -2.3273 -0.0028 30 30 0 0
0.5531 -2.3270 -0.0030 30 30 0 0
0.5363 -2.3267 -0.0013 30 30 0 0
0.5363 -2.3267 -0.0013 30 30 0 0
0.5419 -2.3265 -0.0014 30 30 0 0
0.5251 -2.3261 -0.0027 30 30 0 0
0.5475 -2.3255 -0.0029 30 30 0 0
0.5475 -2.3260 -0.0043 0 30 0 0
0.5251 -2.3262 -0.0045 0 30 0 0
0.5251 -2.3262 -0.0045 0 30 0 0
0.5475 -2.3262 -0.0040 0 0 0 0
0.5196 -2.3262 -0.0064 0 30 0 0
0.5587 -2.3267 -0.0035 0 30 0 0
0.5475 -2.3271 -0.0066 0 30 0 0
0.5475 -2.3267 -0.0069 0 30 0 0
0.5698 -2.3267 -0.0069 0 30 0 0
0.5531 -2.3269 -0.0072 0 30 0 0
0.5363 -2.3270 -0.0053 0 30 0 0
0.5363 -2.3270 -0.0053 0 30 0 0
0.5363 -2.3267 -0.0059 0 30 0 0
0.5307 -2.3264 -0.0059 0 30 0 0
0.5363 -2.3265 -0.0060 0 30 0 0
0.5475 -2.3264 -0.0063 0 30 0 0
0.5475 -2.3264 -0.0063 0 30 0 0
0.5866 -2.3263 -0.0062 0 30 0 0
0.5866 -2.3263 -0.0062 0 30 0 0
0.5475 -2.3265 -0.0061 0 30 0 0
0.5531 -2.3265 -0.0060 0 30 0 0
0.5251 -2.3266 -0.0065 0 30 0 0
0.5251 -2.3266 -0.0065 0 30 0 0
0.5698 -2.3261 -0.0068 0 30 0 0
0.5642 -2.3255 -0.0068 0 30 0 0
0.5140 -2.3251 -0.0069 0 30 0 0
0.5140 -2.3251 -0.0069 0 30 0 0
0.5587 -2.3254 -0.0070 0 30 0 0
0.5419 -2.3258 -0.0070 0 30 0 0
0.5251 -2.3264 -0.0073 0 30 0 0
0.5251 -2.3264 -0.0073 0 30 0 0
0.5363 -2.3266 -0.0073 0 30 0 0
0.5196 -2.3262 -0.0081 0 30 0 0
0.5140 -2.3261 -0.0070 0 30 0 0
0.5140 -2.3261 -0.0070 0 30 0 0
0.5251 -2.3261 -0.0071 0 30 0 0
0.5419 -2.3260 -0.0061 0 30 0 0
0.4972 -2.3263 -0.0057 0 30 0 0
0.4972 -2.3263 -0.0057 0 30 0 0
0.5140 -2.3258 -0.0046 0 30 0 0
0.5363 -2.3258 -0.0086 0 30 0 0
0.5363 -2.3260 -0.0084 0 30 0 0
0.5531 -2.3260 -0.0084 0 30 0 0
0.5251 -2.3260 -0.0035 0 30 0 0
0.5419 -2.3260 -0.0035 0 30 0 0
0.5196 -2.3258 -0.0033 0 30 0 0
0.5251 -2.3257 -0.0007 0 30 0 0
0.5028 -2.3256 -0.0016 0 30 0 0
0.5028 -2.3256 -0.0016 0 30 0 0
0.5196 -2.3257 -0.0019 0 30 0 0
0.5363 -2.3258 -0.0018 0 30 0 0
0.5028 -2.3260 0.0015 0 30 0 0
0.5028 -2.3260 0.0015 0 30 0 0
0.4972 -2.3262 0.0015 0 30 0 0
0.5251 -2.3260 0.0032 0 30 0 0
0.5028 -2.3264 0.0030 0 30 0 0
0.5419 -2.3264 0.0041 0 30 0 0
0.5363 -2.3263 0.0044 0 30 0 0
0.5251 -2.3259 0.0050 0 30 0 0
0.5251 -2.3259 0.0050 0 30 0 0
0.5307 -2.3261 0.0040 0 30 0 0
0.5531 -2.3262 0.0036 0 30 0 0
0.5028 -2.3264 0.0030 0 30 0 0
0.5028 -2.3264 0.0030 0 30 0 0
0.5531 -2.3267 0.0027 0 30 0 0
0.5587 -2.3268 0.0032 0 30 0 0
0.5587 -2.3268 0.0029 0 30 0 0
0.5419 -2.3268 0.0029 0 30 0 0
0.5140 -2.3269 0.0028 0 30 0 0
0.5754 -2.3274 0.0023 0 30 0 0
0.6089 -2.3274 0.0040 0 30 0 0
0.6089 -2.3274 0.0040 0 30 0 0
0.5419 -2.3274 0.0033 0 30 0 0
0.5642 -2.3269 0.0024 0 30 0 0
0.4972 -2.3268 0.0015 0 30 0 0
0.4972 -2.3268 0.0015 0 30 0 0
0.5419 -2.3267 0.0026 0 30 0 0
0.5419 -2.3266 0.0015 0 30 0 0
0.5419 -2.3266 0.0015 0 30 0 0
0.5810 -2.3266 0.0028 0 30 0 0
0.5810 -2.3267 0.0025 0 30 0 0
0.5810 -2.3267 0.0025 0 30 0 0
0.5810 -2.3267 0.0019 0 30 0 0
0.5922 -2.3271 0.0012 0 30 0 0
0.5587 -2.3271 0.0007 0 30 0 0
0.5587 -2.3271 0.0007 0 30 0 0
0.5866 -2.3263 0.0005 0 30 0 0
0.5754 -2.3256 -0.0005 0 30 0 0
0.5754 -2.3256 -0.0005 0 30 0 0
0.5698 -2.3257 -0.0009 0 30 0 0
0.6034 -2.3259 -0.0029 0 30 0 0
0.6034 -2.3259 -0.0029 0 30 0 0
0.5754 -2.3268 -0.0067 0 30 0 0
0.5866 -2.3268 -0.0072 0 30 0 0
0.5866 -2.3268 -0.0072 0 30 0 0
0.5642 -2.3265 -0.0099 0 30 0 0
0.5363 -2.3260 -0.0102 0 30 0 0
0.5978 -2.3257 -0.0099 0 30 0 0
0.6034 -2.3261 -0.0110 0 30 0 0
0.5642 -2.3260 -0.0106 0 30 0 0
0.5642 -2.3260 -0.0106 0 30 0 0
0.5642 -2.3259 -0.0086 0 30 0 0
0.5642 -2.3253 -0.0080 0 30 0 0
0.5531 -2.3250 -0.0071 0 30 0 0
0.5531 -2.3250 -0.0071 0 30 0 0
0.6145 -2.3250 -0.0070 0 30 0 0
0.5922 -2.3253 -0.0047 0 30 0 0
0.5754 -2.3254 -0.0047 0 30 0 0
0.5754 -2.3254 -0.0047 0 30 0 0
0.5810 -2.3251 -0.0054 0 30 0 0
0.5475 -2.3254 -0.0058 0 30 0 0
0.5978 -2.3254 -0.0068 0 30 0 0
0.5978 -2.3254 -0.0068 0 30 0 0
0.5978 -2.3253 -0.0061 0 30 0 0
0.5866 -2.3254 -0.0065 0 30 0 0
0.5866 -2.3254 -0.0065 0 30 0 0
0.6089 -2.3258 -0.0064 0 30 0 0
0.5810 -2.3256 -0.0078 0 30 0 0
0.6313 -2.3251 -0.0076 0 30 0 0
0.6313 -2.3251 -0.0076 0 30 0 0
0.5140 -2.3247 -0.0077 0 30 0 0
0.5866 -2.3246 -0.0075 0 30 0 0
0.5475 -2.3247 -0.0072 0 30 0 0
0.5698 -2.3246 -0.0069 0 30 0 0
0.5642 -2.3241 -0.0054 0 30 0 0
0.5698 -2.3239 -0.0057 0 30 0 0
0.5698 -2.3239 -0.0057 0 30 0 0
0.5419 -2.3240 -0.0065 0 30 0 0
0.5642 -2.3244 -0.0053 0 30 0 0
0.5531 -2.3243 -0.0056 0 30 0 0
0.5531 -2.3243 -0.0056 0 30 0 0
0.4972 -2.3243 -0.0065 0 30 0 0
0.5307 -2.3242 -0.0070 0 30 0 0
0.5587 -2.3246 -0.0081 0 30 0 0
0.5587 -2.3246 -0.0081 0 30 0 0
0.5810 -2.3250 -0.0086 0 30 0 0
0.5251 -2.3250 -0.0090 0 30 0 0
0.5587 -2.3249 -0.0090 0 30 0 0
0.5587 -2.3249 -0.0090 0 30 0 0
0.5363 -2.3256 -0.0087 0 30 0 0
0.5363 -2.3260 -0.0084 0 30 0 0
0.5587 -2.3258 -0.0085 0 30 0 0
0.5475 -2.3261 -0.0081 0 30 0 0
0.5642 -2.3260 -0.0083 0 30 0 0
0.5642 -2.3260 -0.0083 0 30 0 0
0.5475 -2.3255 -0.0084 0 30 0 0
0.5363 -2.3253 -0.0085 0 30 0 0
0.5419 -2.3253 -0.0087 0 30 0 0
0.5922 -2.3256 -0.0086 0 30 0 0
0.5475 -2.3257 -0.0084 0 30 0 0
0.5754 -2.3256 -0.0086 0 30 0 0
0.5754 -2.3256 -0.0088 0 30 0 0
0.5922 -2.3253 -0.0089 0 30 0 0
0.5810 -2.3250 -0.0095 0 30 0 0
0.5810 -2.3250 -0.0095 0 30 0 0
0.5475 -2.3248 -0.0094 0 30 0 0
0.5475 -2.3247 -0.0089 0 30 0 0
0.5531 -2.3248 -0.0083 0 30 0 0
0.5419 -2.3253 -0.0082 0 30 0 0
0.5642 -2.3260 -0.0073 0 30 0 0
0.5642 -2.3262 -0.0075 0 30 0 0
0.5307 -2.3259 -0.0071 0 30 0 0
0.5307 -2.3259 -0.0071 0 30 0 0
0.5419 -2.3256 -0.0059 0 30 0 0
0.5084 -2.3252 -0.0056 0 30 0 0
0.5307 -2.3253 -0.0050 0 30 0 0
0.5307 -2.3253 -0.0050 0 30 0 0
0.5419 -2.3251 -0.0070 0 30 0 0
0.5363 -2.3252 -0.0088 0 30 0 0
0.5363 -2.3252 -0.0088 0 30 0 0
0.5475 -2.3252 -0.0106 0 30 0 0
0.5698 -2.3252 -0.0106 0 30 0 0
0.5363 -2.3253 -0.0103 0 30 0 0
0.5475 -2.3262 -0.0130 0 30 0 0
0.5475 -2.3262 -0.0130 0 30 0 0
0.5307 -2.3264 -0.0152 0 30 0 0
0.5307 -2.3262 -0.0128 0 30 0 0
0.5922 -2.3262 -0.0122 0 30 0 0
0.5084 -2.3266 -0.0155 0 30 0 0
0.5084 -2.3266 -0.0155 0 30 0 0
0.5251 -2.3262 -0.0168 0 30 0 0
0.5084 -2.3260 -0.0147 0 30 0 0
0.5587 -2.3259 -0.0145 0 30 0 0
0.5587 -2.3259 -0.0145 0 30 0 0
0.5307 -2.3262 -0.0181 0 30 0 0
0.5642 -2.3265 -0.0196 0 30 0 0
0.5642 -2.3265 -0.0196 0 30 0 0
0.5475 -2.3271 -0.0205 0 30 0 0
0.5196 -2.3273 -0.0209 0 30 0 0
0.5196 -2.3273 -0.0209 0 30 0 0
0.5196 -2.3274 -0.0203 0 30 0 0
0.5419 -2.3272 -0.0193 0 30 0 0
0.5642 -2.3272 -0.0190 0 30 0 0
0.5307 -2.3274 -0.0175 0 30 0 0
0.5307 -2.3274 -0.0175 0 30 0 0
0.5196 -2.3273 -0.0175 0 30 0 0
0.5251 -2.3273 -0.0175 0 30 0 0
0.5196 -2.3268 -0.0202 0 30 0 0
0.5140 -2.3267 -0.0197 0 30 0 0
0.5140 -2.3267 -0.0197 0 30 0 0
0.4972 -2.3267 -0.0190 0 30 0 0
0.4860 -2.3268 -0.0182 0 30 0 0
0.4693 -2.3265 -0.0175 0 30 0 0
0.5084 -2.3264 -0.0177 0 30 0 0
0.5084 -2.3264 -0.0177 0 30 0 0
0.4860 -2.3262 -0.0162 0 30 0 0
0.5307 -2.3260 -0.0153 0 30 0 0
0.5307 -2.3260 -0.0141 0 30 0 0
0.5307 -2.3260 -0.0141 0 30 0 0
0.5084 -2.3263 -0.0126 0 30 0 0
0.5419 -2.3262 -0.0116 0 30 0 0
0.5084 -2.3265 -0.0123 0 30 0 0
0.5028 -2.3268 -0.0114 0 30 0 0
0.4804 -2.3269 -0.0104 0 30 0 0
0.4749 -2.3273 -0.0109 0 30 0 0
0.5475 -2.3272 -0.0117 0 30 0 0
0.5475 -2.3272 -0.0117 0 30 0 0
0.4972 -2.3272 -0.0122 0 30 0 0
0.4804 -2.3272 -0.0119 0 30 0 0
0.5028 -2.3265 -0.0119 0 30 0 0
0.4637 -2.3266 -0.0107 0 30 0 0
0.4860 -2.3265 -0.0115 0 30 0 0
0.5307 -2.3269 -0.0115 0 30 0 0
0.5140 -2.3272 -0.0124 0 30 0 0
0.5140 -2.3272 -0.0124 0 30 0 0
0.5196 -2.3271 -0.0112 0 30 0 0
0.4749 -2.3269 -0.0127 0 30 0 0
0.4413 -2.3263 -0.0102 0 30 0 0
0.4749 -2.3263 -0.0104 0 30 0 0
0.5251 -2.3257 -0.0113 0 30 0 0
0.5084 -2.3255 -0.0119 0 30 0 0
0.4972 -2.3255 -0.0112 0 30 0 0
0.4972 -2.3255 -0.0112 0 30 0 0
0.4972 -2.3266 -0.0142 0 30 0 0
0.4693 -2.3265 -0.0153 0 30 0 0
0.4693 -2.3265 -0.0153 0 30 0 0
0.5140 -2.3262 -0.0170 0 30 0 0
0.4749 -2.3261 0.3935 0 30 0 0
0.4693 -2.3265 0.3937 0 30 0 0
0.4804 -2.3273 0.3905 0 30 0 0
0.4804 -2.3273 0.3905 0 30 0 0
0.4469 -2.3275 0.3898 0 30 0 0
0.4693 -2.3276 0.3905 0 30 0 0
0.4469 -2.3271 0.3930 0 30 0 0
0.4469 -2.3271 0.3930 0 30 0 0
0.5251 -2.3267 0.3975 0 30 0 0
0.4469 -2.3262 0.3982 0 30 0 0
0.4413 -2.3262 0.4004 0 30 0 0
0.4413 -2.3262 0.4004 0 30 0 0
0.4749 -2.3264 0.3990 0 30 0 0
0.4581 -2.3267 0.3990 0 30 0 0
0.4581 -2.3271 0.3999 0 30 0 0
0.4637 -2.3267 0.4014 0 30 0 0
0.4637 -2.3265 -0.0283 0 30 0 0
0.4916 -2.3268 -0.0303 0 30 0 0
0.5028 -2.3268 -0.0300 0 30 0 0
0.4860 -2.3262 -0.0246 0 30 0 0
0.4413 -2.3253 -0.0261 0 30 0 0
0.4749 -2.3253 -0.0255 0 30 0 0
0.4749 -2.3253 -0.0255 0 30 0 0
0.4358 -2.3256 -0.0254 0 30 0 0
0.4413 -2.3265 -0.0297 0 30 0 0
0.4637 -2.3264 -0.0317 0 30 0 0
0.4637 -2.3264 -0.0317 0 30 0 0
0.4302 -2.3263 -0.0321 0 30 0 0
0.4693 -2.3262 -0.0330 0 30 0 0
0.4358 -2.3262 -0.0299 0 30 0 0
0.4358 -2.3262 -0.0299 0 30 0 0
0.4860 -2.3262 -0.0280 0 30 0 0
0.4246 -2.3259 -0.0241 0 30 0 0
0.4637 -2.3259 -0.0240 0 30 0 0
0.4637 -2.3259 -0.0240 0 30 0 0
0.4358 -2.3258 -0.0234 0 30 0 0
0.4693 -2.3258 -0.0228 0 30 0 0
0.4804 -2.3260 -0.0233 0 30 0 0
0.4804 -2.3260 -0.0233 0 30 0 0
0.4637 -2.3263 -0.0250 0 30 0 0
0.4358 -2.3265 -0.0263 0 30 0 0
0.4469 -2.3264 -0.0242 0 30 0 0
0.4469 -2.3264 -0.0242 0 30 0 0
0.4637 -2.3262 -0.0265 0 30 0 0
0.4413 -2.3262 -0.0255 0 30 0 0
0.4469 -2.3265 -0.0236 0 30 0 0
0.4190 -2.3268 -0.0223 0 30 0 0
0.4413 -2.3267 -0.0244 0 30 0 0
0.4413 -2.3267 -0.0217 0 30 0 0
0.4860 -2.3267 -0.0217 0 30 0 0
0.4413 -2.3265 -0.0241 0 30 0 0
0.4413 -2.3266 -0.0227 0 30 0 0
0.4413 -2.3270 -0.0221 0 30 0 0
0.4972 -2.3272 -0.0199 0 30 0 0
0.4693 -2.3276 -0.0163 0 0 0 0
0.4469 -2.3272 -0.0240 0 0 0 30
0.4916 -2.3271 -0.0290 0 0 0 30
0.5587 -2.3272 -0.0280 0 0 0 0
0.5251 -2.3275 -0.0269 0 0 0 30
0.5307 -2.3262 -0.0278 0 0 0 30
0.5587 -2.3257 -0.0278 0 0 0 30
0.5698 -2.3258 -0.0284 0 0 0 30
0.5698 -2.3258 -0.0284 0 0 0 0
0.5475 -2.3260 0.3012 0 0 0 30
0.5084 -2.3253 0.3054 0 0 0 30
0.5531 -2.3254 0.3131 0 0 0 0
0.5307 -2.3268 0.3216 0 0 0 30
0.5363 -2.3270 0.3241 0 0 0 30
0.5363 -2.3270 0.3230 0 0 0 0
0.5531 -2.3262 -0.0467 0 0 0 30
0.5251 -2.3267 -0.0487 0 0 0 30
0.5196 -2.3267 -0.0490 0 0 0 0
0.5028 -2.3257 -0.0402 0 0 0 30
0.4916 -2.3261 -0.0391 0 0 0 30
0.4749 -2.3262 -0.0411 0 0 0 30
0.4916 -2.3262 -0.0412 0 0 0 0
0.4804 -2.3262 -0.0429 0 0 0 30
0.5140 -2.3255 -0.0430 0 0 0 30
0.5251 -2.3256 -0.0418 0 0 0 30
0.5251 -2.3256 -0.0418 0 0 0 0
0.4916 -2.3260 -0.0402 0 0 0 30
0.4804 -2.3267 -0.0339 0 0 0 30
0.4637 -2.3267 -0.0339 0 0 0 0
0.4469 -2.3268 -0.0282 0 0 0 30
0.4190 -2.3276 -0.0235 0 0 0 30
0.3799 -2.3278 -0.0232 0 0 0 0
0.4190 -2.3278 -0.0223 0 0 0 30
0.4581 -2.3264 -0.0203 0 0 0 30
0.4134 -2.3260 -0.0185 0 0 0 30
0.4134 -2.3260 -0.0185 0 0 0 0
0.3966 -2.3271 -0.0096 0 0 0 30
0.3911 -2.3269 -0.0071 0 0 0 30
0.3743 -2.3269 -0.0069 0 0 0 0
0.3799 -2.3267 -0.0029 0 0 0 30
0.3966 -2.3276 -0.0002 0 0 0 30
0.3966 -2.3267 -0.0014 0 0 0 30
0.3966 -2.3267 -0.0014 0 0 0 30
0.3799 -2.3265 -0.0012 0 0 0 0
0.3575 -2.3265 0.0046 0 30 0 0
0.3464 -2.3256 0.0048 0 30 0 0
0.3464 -2.3258 0.0040 0 30 0 0
0.3464 -2.3258 0.0040 0 30 0 0
0.3352 -2.3259 0.0044 0 30 0 0
0.3520 -2.3261 0.3385 0 30 0 0
0.3408 -2.3262 0.3382 0 30 0 0
0.3408 -2.3262 0.3382 0 30 0 0
0.3631 -2.3265 0.3391 0 30 0 0
0.3520 -2.3267 0.3398 0 30 0 0
0.3631 -2.3268 0.3391 0 30 0 0
0.3464 -2.3262 0.3404 0 30 0 0
0.3631 -2.3262 0.3408 0 30 0 0
0.3408 -2.3262 0.3416 0 30 0 0
0.3408 -2.3262 0.3416 0 30 0 0
0.3575 -2.3260 0.3423 0 30 0 0
0.3855 -2.3257 0.3418 0 30 0 0
0.3408 -2.3257 0.3423 0 30 0 0
0.3408 -2.3257 0.3423 0 30 0 0
0.3743 -2.3260 0.3423 0 30 0 0
0.3631 -2.3263 0.3424 0 30 0 0
0.3296 -2.3264 0.3429 0 30 0 0
0.3631 -2.3260 0.3413 0 30 0 0
0.3631 -2.3260 0.3413 0 30 0 0
0.3687 -2.3260 0.3414 0 30 0 0
0.3743 -2.3258 0.3407 0 30 0 0
0.3687 -2.3256 0.3396 0 30 0 0
0.3743 -2.3258 0.3389 0 30 0 0
0.3855 -2.3258 0.3394 0 30 0 0
0.3855 -2.3258 0.3394 0 30 0 0
0.3743 -2.3262 0.3398 0 30 0 0
0.3799 -2.3259 0.3395 0 30 0 0
0.3799 -2.3259 0.3395 0 30 0 0
0.3799 -2.3259 0.3415 0 30 0 0
0.3687 -2.3258 0.3411 0 30 0 0
0.3743 -2.3258 0.3404 0 30 0 0
0.3631 -2.3260 0.3387 0 30 0 0
0.3631 -2.3260 0.3387 0 30 0 0
0.3687 -2.3262 0.3391 0 30 0 0
0.3464 -2.3266 0.3379 0 30 0 0
0.3408 -2.3267 0.3364 0 30 0 0
0.3408 -2.3267 0.3364 0 30 0 0
0.3631 -2.3262 0.3364 0 30 0 0
0.3575 -2.3261 0.3368 0 30 0 0
0.3687 -2.3262 -0.0123 0 30 0 0
0.3687 -2.3262 -0.0123 0 30 0 0
0.3799 -2.3264 -0.0144 0 30 0 0
0.3743 -2.3262 -0.0146 0 30 0 0
0.3855 -2.3260 -0.0147 0 30 0 0
0.3352 -2.3260 -0.0109 0 30 0 0
0.3352 -2.3260 -0.0109 0 30 0 0
0.3575 -2.3266 -0.0113 0 30 0 0
0.3631 -2.3266 -0.0109 0 30 0 0
0.3631 -2.3266 -0.0109 0 30 0 0
0.3743 -2.3267 -0.0076 0 30 0 0
0.3464 -2.3264 -0.0091 0 30 0 0
0.3520 -2.3262 -0.0084 0 30 0 0
0.3520 -2.3262 -0.0084 0 0 0 0
