0.5685 0.0006 -0.2385 0 0 0 10
0.5927 0.0010 -0.2448 0 0 0 10
0.6028 0.0011 -0.2457 0 0 0 10
0.6028 0.0015 -0.2462 0 0 0 10
0.5907 0.0015 -0.2462 0 0 0 10
0.5927 0.0014 -0.2466 0 0 0 10
0.5847 0.0012 -0.2466 0 0 0 10
0.5988 0.0006 -0.2466 0 0 0 10
0.5988 0.0006 -0.2466 0 0 0 10
0.6149 0.0003 -0.2444 0 0 0 10
0.6129 0.0003 -0.2430 0 0 0 10
0.5948 0.0006 -0.2407 0 0 0 10
0.5948 0.0006 -0.2407 0 0 0 10
0.5806 0.0015 -0.2364 0 0 0 10
0.5806 0.0015 -0.2364 0 0 0 10
0.5746 0.0011 -0.2336 0 0 0 10
0.5786 0.0004 -0.2285 0 0 0 10
0.5867 0.0002 -0.2267 0 0 0 10
0.6290 -0.0002 -0.2233 0 0 0 10
0.6290 -0.0002 -0.2233 0 0 0 10
0.5806 -0.0005 -0.2201 0 0 0 10
0.5827 -0.0002 -0.2164 0 0 0 10
0.5726 -0.0001 -0.2141 0 0 0 10
0.5907 0.0002 -0.2092 0 0 0 10
0.5968 0.0003 -0.2074 0 0 0 10
0.5806 0.0002 -0.2058 0 0 0 10
0.5806 0.0002 -0.2058 0 0 0 10
0.5927 0.0002 -0.2045 0 0 0 10
0.5907 0.0000 -0.2019 0 0 0 10
0.5887 0.0004 -0.1998 0 0 0 10
0.6008 0.0007 -0.1979 0 0 0 10
0.5887 0.0006 -0.1947 0 0 0 10
0.5887 0.0006 -0.1947 0 0 0 10
0.6109 -0.0000 -0.1909 0 0 0 10
0.6048 0.0001 -0.1896 0 0 0 10
0.5948 0.0004 -0.1873 0 0 0 10
0.6149 0.0003 -0.1809 0 0 0 10
0.6149 0.0003 -0.1809 0 0 0 10
0.5887 0.0003 -0.1785 0 0 0 10
0.5685 0.0000 -0.1772 0 0 0 10
0.6028 0.0000 -0.1741 0 0 0 10
0.5968 0.0005 -0.1708 0 0 0 10
0.5948 0.0010 -0.1681 0 0 0 10
0.5948 0.0010 -0.1681 0 0 0 10
0.6008 0.0012 -0.1647 0 0 0 10
0.6310 0.0010 -0.1655 0 0 0 10
0.5827 0.0005 -0.1627 0 0 0 10
0.6069 0.0003 -0.1588 0 0 0 10
0.6129 0.0006 -0.1554 0 0 0 10
0.5988 0.0010 -0.1521 0 0 0 10
0.5988 0.0010 -0.1501 0 0 0 10
0.6008 0.0010 -0.1501 0 0 0 10
0.5867 0.0003 -0.1446 0 0 0 10
0.5867 0.0003 -0.1446 0 0 0 10
0.6250 0.0012 -0.1276 0 0 0 10
0.6391 0.0012 -0.1290 0 0 0 10
0.6391 0.0007 -0.1265 0 0 0 10
0.6391 0.0007 -0.1265 0 0 0 10
0.6391 0.0002 -0.1260 0 0 0 10
0.6290 0.0001 -0.1245 0 0 0 10
0.6190 0.0001 -0.1231 0 0 0 10
0.6452 0.0008 -0.1205 0 0 0 10
0.6290 0.0012 -0.1182 0 0 0 10
0.6290 0.0012 -0.1182 0 0 0 10
0.6552 0.0012 -0.1187 0 0 0 10
0.6391 0.0005 -0.1169 0 0 0 10
0.6391 0.0001 -0.1143 0 0 0 10
0.6391 -0.0003 -0.1108 0 0 0 10
0.6391 -0.0003 -0.1108 0 0 0 10
0.6391 0.0003 -0.1066 0 0 0 10
0.6391 0.0003 -0.1066 0 0 0 10
0.6532 0.0004 -0.0990 0 0 0 10
0.6452 0.0004 -0.0969 0 0 0 10
0.6431 -0.0002 -0.0971 0 0 0 10
0.6391 -0.0007 -0.0950 0 0 0 10
0.6391 -0.0007 -0.0950 0 0 0 10
0.6411 -0.0006 -0.0881 0 0 0 10
0.6411 -0.0006 -0.0881 0 0 0 10
0.6472 -0.0001 -0.0842 0 0 0 10
0.6754 0.0000 -0.0798 0 0 0 10
0.6552 0.0005 -0.0784 0 0 0 10
0.6734 0.0005 -0.0760 0 0 0 10
0.6613 0.0002 -0.0746 0 0 0 10
0.6714 0.0001 -0.0706 0 0 0 10
0.6754 0.0002 -0.0693 0 0 0 10
0.6754 0.0002 -0.0693 0 0 0 10
0.6794 -0.0002 -0.0652 0 0 0 10
0.6754 -0.0002 -0.0620 0 0 0 10
0.6714 -0.0005 -0.0588 0 0 0 10
0.6714 -0.0008 -0.0556 0 0 0 10
0.6996 -0.0009 -0.0516 0 0 0 10
0.6956 -0.0009 -0.0516 0 0 0 10
0.6613 -0.0011 -0.0495 0 0 0 10
0.6895 -0.0011 -0.0481 0 0 0 10
0.6996 -0.0008 -0.0459 0 0 0 10
0.6653 -0.0004 -0.0432 0 0 0 10
0.6935 0.0001 -0.0401 0 0 0 10
0.6976 -0.0001 -0.0366 0 0 0 10
0.6895 -0.0007 -0.0344 0 0 0 10
0.6996 -0.0008 -0.0332 0 0 0 10
0.7036 -0.0006 -0.0318 0 0 0 10
0.7056 -0.0003 -0.0305 0 0 0 0
0.7117 0.0001 -0.0249 0 0 0 10
0.7077 -0.0008 -0.0187 0 0 0 10
0.7016 -0.0001 -0.0187 0 0 0 10
0.7016 -0.0001 -0.0187 0 0 0 0
0.7258 -0.0001 -0.0166 0 0 0 10
