0.6120 0.1219 0.0161 0 0 10 0
0.6340 0.1205 0.0152 0 0 10 0
0.6380 0.1211 0.0154 0 0 10 0
0.6320 0.1220 0.0154 0 0 10 0
0.6160 0.1224 0.0131 0 0 10 0
0.6260 0.1224 0.0128 0 0 10 0
0.6220 0.1219 0.0161 0 0 10 0
0.6220 0.1219 0.0161 0 0 10 0
0.6320 0.1218 0.0161 0 0 10 0
0.6240 0.1218 0.0182 0 0 10 0
0.6160 0.1222 0.0195 0 0 10 0
0.6200 0.1223 0.0201 0 0 10 0
0.6200 0.1223 0.0201 0 0 10 0
0.6280 0.1220 0.0183 0 0 10 0
0.6280 0.1220 0.0183 0 0 10 0
0.6360 0.1220 0.0175 0 0 10 0
0.6380 0.1219 0.0174 0 0 10 0
0.6280 0.1217 0.0182 0 0 10 0
0.6300 0.1218 0.0185 0 0 10 0
0.6300 0.1213 0.0185 0 0 10 0
0.6440 0.1211 0.0186 0 0 10 0
0.6100 0.1207 0.0151 0 0 10 0
0.6100 0.1207 0.0151 0 0 10 0
0.6340 0.1197 0.0177 0 0 10 0
0.6420 0.1192 0.0182 0 0 10 0
0.6420 0.1192 0.0182 0 0 10 0
0.6320 0.1185 0.0167 0 0 10 0
0.6120 0.1182 0.0201 0 0 10 0
0.6280 0.1178 0.0200 0 0 10 0
0.6280 0.1178 0.0200 0 0 10 0
0.6260 0.1174 0.0182 0 0 10 0
0.6220 0.1171 0.0176 0 0 10 0
0.6480 0.1167 0.0166 0 0 10 0
0.6520 0.1163 0.0161 0 0 10 0
0.6280 0.1159 0.0156 0 0 10 0
0.6300 0.1156 0.0150 0 0 10 0
0.6300 0.1156 0.0150 0 0 10 0
0.6300 0.1148 0.0174 0 0 10 0
0.6080 0.1141 0.0160 0 0 10 0
0.6080 0.1141 0.0160 0 0 10 0
0.6340 0.1132 0.0144 0 0 10 0
0.6340 0.1132 0.0144 0 0 10 0
0.6420 0.1128 0.0137 0 0 10 0
0.6060 0.1116 0.0126 0 0 10 0
0.6060 0.1116 0.0126 0 0 10 0
0.6200 0.1110 0.0132 0 0 10 0
0.6300 0.1104 0.0128 0 0 10 0
0.6300 0.1104 0.0128 0 0 10 0
0.6220 0.1099 0.0139 0 0 10 0
0.6440 0.1093 0.0132 0 0 10 0
0.6280 0.1092 0.0128 0 0 10 0
0.6300 0.1091 0.0127 0 0 10 0
0.6300 0.1091 0.0127 0 0 10 0
0.6200 0.1086 0.0132 0 0 10 0
0.6340 0.1082 0.0132 0 0 10 0
0.6300 0.1079 0.0115 0 0 10 0
0.6300 0.1079 0.0115 0 0 10 0
0.6360 0.1076 0.0092 0 0 10 0
0.6360 0.1076 0.0092 0 0 10 0
0.6240 0.1070 0.0114 0 0 10 0
0.6240 0.1070 0.0114 0 0 10 0
0.6360 0.1051 0.0133 0 0 10 0
0.6220 0.1048 0.0132 0 0 10 0
0.6220 0.1048 0.0132 0 0 10 0
0.6260 0.1035 0.0099 0 0 10 0
0.6260 0.1035 0.0099 0 0 10 0
0.6320 0.1035 0.0128 0 0 10 0
0.6360 0.1027 0.0114 0 0 10 0
0.6200 0.1024 0.0131 0 0 10 0
0.6200 0.1024 0.0131 0 0 10 0
0.6340 0.1022 0.0132 0 0 10 0
0.6500 0.1016 0.0132 0 0 10 0
0.6340 0.1016 0.0150 0 0 10 0
0.6240 0.1015 0.0161 0 0 10 0
0.6380 0.1011 0.0161 0 0 10 0
0.6380 0.1011 0.0161 0 0 10 0
0.6460 0.1005 0.0140 0 0 10 0
0.6440 0.1001 0.0150 0 0 10 0
0.6440 0.0999 0.0178 0 0 10 0
0.6440 0.0999 0.0178 0 0 10 0
0.6500 0.0993 0.0184 0 0 10 0
0.6460 0.0987 0.0171 0 0 10 0
0.6620 0.0981 0.0175 0 0 10 0
0.6460 0.0976 0.0180 0 0 10 0
0.6460 0.0976 0.0181 0 0 10 0
0.6340 0.0975 0.0168 0 0 10 0
0.6340 0.0975 0.0168 0 0 10 0
0.6320 0.0971 0.0169 0 0 10 0
0.6260 0.0966 0.0182 0 0 10 0
0.6500 0.0964 0.0186 0 0 10 0
0.6500 0.0964 0.0186 0 0 10 0
0.6280 0.0960 0.0151 0 0 10 0
0.6160 0.0960 0.0158 0 0 10 0
0.6200 0.0956 0.0153 0 0 10 0
0.6380 0.0950 0.0159 0 0 10 0
0.6180 0.0945 0.0156 0 0 10 0
0.6060 0.0938 0.0165 0 0 10 0
0.6400 0.0934 0.0161 0 0 10 0
0.6380 0.0929 0.0132 0 0 10 0
0.6380 0.0929 0.0132 0 0 10 0
0.6400 0.0932 0.0134 0 0 10 0
0.6260 0.0929 0.0128 0 0 10 0
0.6320 0.0926 0.0126 0 0 10 0
0.6320 0.0926 0.0126 0 0 10 0
0.6420 0.0920 0.0146 0 0 10 0
0.6440 0.0909 0.0137 0 0 10 0
0.6520 0.0900 0.0117 0 0 10 0
0.6520 0.0900 0.0117 0 0 10 0
0.6500 0.0892 0.0110 0 0 10 0
0.6500 0.0892 0.0110 0 0 10 0
0.6360 0.0888 0.0110 0 0 10 0
0.6300 0.0883 0.0138 0 0 10 0
0.6300 0.0883 0.0138 0 0 10 0
0.6560 0.0878 0.0148 0 0 10 0
0.6480 0.0871 0.0133 0 0 10 0
0.6460 0.0864 0.0134 0 0 10 0
0.6400 0.0854 0.0127 0 0 10 0
0.6400 0.0852 0.0134 0 0 10 0
0.6480 0.0852 0.0095 0 0 10 0
0.6480 0.0852 0.0095 0 0 10 0
0.6360 0.0843 0.0135 0 0 10 0
0.6360 0.0843 0.0135 0 0 10 0
0.6400 0.0834 0.0140 0 0 10 0
0.6400 0.0834 0.0140 0 0 10 0
0.6400 0.0826 0.0134 0 0 10 0
0.6420 0.0824 0.0152 0 0 10 0
0.6540 0.0817 0.0147 0 0 10 0
0.6500 0.0812 0.0147 0 0 10 0
0.6500 0.0812 0.0147 0 0 10 0
0.6320 0.0810 0.0144 0 0 10 0
0.6320 0.0801 0.0161 0 0 10 0
0.6420 0.0799 0.0161 0 0 10 0
0.6420 0.0795 0.0150 0 0 10 0
0.6340 0.0790 0.0146 0 0 10 0
0.6340 0.0790 0.0146 0 0 10 0
0.6460 0.0781 0.0155 0 0 10 0
0.6460 0.0781 0.0155 0 0 10 0
0.6240 0.0779 0.0155 0 0 10 0
0.6360 0.0778 0.0155 0 0 10 0
0.6460 0.0774 0.0157 0 0 10 0
0.6460 0.0774 0.0157 0 0 10 0
0.6260 0.0773 0.0147 0 0 10 0
0.6500 0.0771 0.0151 0 0 10 0
0.6260 0.0768 0.0148 0 0 10 0
0.6660 0.0766 0.0151 0 0 10 0
0.6660 0.0766 0.0151 0 0 10 0
0.6440 0.0761 0.0124 0 0 10 0
0.6500 0.0756 0.0125 0 0 10 0
0.6380 0.0750 0.0128 0 0 10 0
0.6580 0.0751 0.0134 0 0 10 0
0.6580 0.0751 0.0134 0 0 10 0
0.6500 0.0746 0.0141 0 0 10 0
0.6580 0.0743 0.0138 0 0 10 0
0.6660 0.0738 0.0142 0 0 10 0
0.6460 0.0731 0.0145 0 0 10 0
0.6460 0.0731 0.0145 0 0 10 0
0.6480 0.0728 0.0147 0 0 10 0
0.6520 0.0719 0.0132 0 0 10 0
0.6520 0.0717 0.0130 0 0 10 0
0.6600 0.0717 0.0130 0 0 10 0
0.6840 0.0703 0.0126 0 0 10 0
0.6840 0.0703 0.0126 0 0 10 0
0.6540 0.0699 0.0133 0 0 10 0
0.6580 0.0696 0.0130 0 0 10 0
0.6460 0.0699 0.0140 0 0 10 0
0.6500 0.0696 0.0145 0 0 10 0
0.6360 0.0691 0.0154 0 0 10 0
0.6540 0.0690 0.0159 0 0 10 0
0.6460 0.0683 0.0174 0 0 10 0
0.6460 0.0683 0.0174 0 0 10 0
0.6640 0.0679 0.0162 0 0 10 0
0.6660 0.0668 0.0153 0 0 10 0
0.6780 0.0661 0.0162 0 0 10 0
0.6620 0.0657 0.0155 0 0 10 0
0.6620 0.0657 0.0155 0 0 10 0
0.6660 0.0652 0.0154 0 0 0 0
0.6660 0.0646 0.0135 0 0 0 -10
0.6640 0.0623 0.0122 0 0 0 -10
0.6460 0.0614 0.0128 0 0 0 -10
0.6520 0.0610 0.0122 0 0 0 0
0.6700 0.0608 0.0098 0 0 0 -10
0.6700 0.0616 0.0081 0 0 0 -10
0.6700 0.0616 0.0081 0 0 0 0
0.6880 0.0615 0.0088 0 0 0 -10
0.6800 0.0617 0.0038 0 0 0 -10
0.6800 0.0617 0.0038 0 0 0 0
0.6920 0.0621 0.0004 0 0 0 -10
0.6880 0.0617 -0.0059 0 0 0 -10
0.6880 0.0617 -0.0059 0 0 0 0
0.6800 0.0622 -0.0074 0 0 10 0
0.6600 0.0620 -0.0109 0 0 10 0
0.6500 0.0624 -0.0119 0 0 10 0
0.6640 0.0624 -0.0115 0 0 10 0
0.6500 0.0628 -0.0108 0 0 10 0
0.6680 0.0625 -0.0111 0 0 10 0
0.6500 0.0624 -0.0110 0 0 10 0
0.6660 0.0619 -0.0127 0 0 10 0
0.6660 0.0619 -0.0127 0 0 10 0
0.6560 0.0627 -0.0135 0 0 10 0
0.6620 0.0626 -0.0122 0 0 10 0
0.6620 0.0626 -0.0122 0 0 10 0
0.6500 0.0612 -0.0117 0 0 10 0
0.6520 0.0605 -0.0119 0 0 10 0
0.6600 0.0599 -0.0098 0 0 10 0
0.6600 0.0599 -0.0098 0 0 10 0
0.6700 0.0596 -0.0103 0 0 10 0
0.6660 0.0599 -0.0108 0 0 10 0
0.6680 0.0594 -0.0112 0 0 10 0
0.6720 0.0591 -0.0123 0 0 10 0
0.6740 0.0583 -0.0102 0 0 10 0
0.6740 0.0583 -0.0102 0 0 10 0
0.6740 0.0574 -0.0076 0 0 10 0
0.6740 0.0574 -0.0076 0 0 10 0
0.6720 0.0573 -0.0075 0 0 10 0
0.6780 0.0576 -0.0083 0 0 10 0
0.6800 0.0573 -0.0087 0 0 0 0
0.6620 0.0555 -0.0065 0 0 0 10
0.6760 0.0534 -0.0072 0 0 0 10
0.6700 0.0526 -0.0081 0 0 0 10
0.6980 0.0522 -0.0078 0 0 0 0
0.6760 0.0524 -0.0038 0 0 0 10
0.6660 0.0517 0.0000 0 0 0 10
0.6780 0.0517 0.0000 0 0 0 0
0.6760 0.0510 0.0007 0 0 10 0
0.6760 0.0514 -0.0033 0 0 10 0
0.6680 0.0509 -0.0048 0 0 10 0
0.6940 0.0511 -0.0056 0 0 10 0
0.6780 0.0516 -0.0096 0 0 10 0
0.6760 0.0516 -0.0083 0 0 10 0
0.6760 0.0516 -0.0083 0 0 10 0
0.6600 0.0513 -0.0086 0 0 10 0
0.6840 0.0514 -0.0088 0 0 10 0
0.7000 0.0511 -0.0087 0 0 10 0
0.6900 0.0513 -0.0085 0 0 10 0
0.6900 0.0513 -0.0085 0 0 10 0
0.6820 0.0516 -0.0096 0 0 10 0
0.6940 0.0521 -0.0095 0 0 10 0
0.6700 0.0518 -0.0095 0 0 10 0
0.6780 0.0514 -0.0098 0 0 10 0
0.6940 0.0511 -0.0097 0 0 10 0
0.6840 0.0504 -0.0094 0 0 10 0
0.6840 0.0504 -0.0094 0 0 10 0
0.6860 0.0502 -0.0091 0 0 10 0
0.6780 0.0501 -0.0090 0 0 10 0
0.7000 0.0499 -0.0103 0 0 10 0
0.6840 0.0495 -0.0105 0 0 10 0
0.6780 0.0484 -0.0098 0 0 10 0
0.7040 0.0483 -0.0093 0 0 0 0
0.6880 0.0469 -0.0108 0 0 10 0
0.6700 0.0441 -0.0102 0 0 10 0
0.6720 0.0435 -0.0094 0 0 10 0
0.6720 0.0435 -0.0094 0 0 10 0
0.6700 0.0437 -0.0081 0 0 10 0
0.6720 0.0430 -0.0061 0 0 10 0
0.6620 0.0427 -0.0051 0 0 10 0
0.6900 0.0425 -0.0056 0 0 0 0
0.6680 0.0426 -0.0030 0 0 10 0
0.6860 0.0405 0.0005 0 0 10 0
0.6820 0.0402 0.0032 0 0 10 0
0.6820 0.0402 0.0032 0 0 10 0
0.6740 0.0402 0.0029 0 0 10 0
0.6740 0.0397 0.0012 0 0 10 0
0.6840 0.0392 0.0016 0 0 10 0
0.6840 0.0392 0.0016 0 0 10 0
0.6900 0.0390 -0.0007 0 0 10 0
0.6960 0.0388 -0.0010 0 0 10 0
0.6800 0.0390 -0.0001 0 0 10 0
0.6800 0.0390 -0.0001 0 0 10 0
0.6860 0.0396 -0.0005 0 0 10 0
0.6860 0.0396 -0.0005 0 0 10 0
0.6840 0.0397 -0.0001 0 0 10 0
0.6860 0.0396 -0.0019 0 0 10 0
0.6980 0.0392 -0.0045 0 0 10 0
0.6800 0.0389 -0.0050 0 0 0 0
0.6900 0.0381 -0.0028 0 0 10 0
0.6960 0.0359 -0.0036 0 0 10 0
0.7100 0.0357 -0.0038 0 0 10 0
0.7020 0.0355 -0.0037 0 0 10 0
0.7020 0.0355 -0.0037 0 0 10 0
0.6720 0.0354 -0.0028 0 0 10 0
0.6780 0.0352 -0.0026 0 0 10 0
0.6760 0.0348 -0.0026 0 0 10 0
0.7060 0.0347 -0.0030 0 0 10 0
0.7060 0.0347 -0.0030 0 0 10 0
0.6960 0.0344 -0.0006 0 0 10 0
0.7100 0.0342 -0.0031 0 0 10 0
0.7060 0.0340 -0.0032 0 0 10 0
0.7000 0.0341 -0.0056 0 0 0 0
0.7040 0.0336 -0.0077 0 0 10 0
0.7140 0.0322 -0.0093 0 0 10 0
0.7060 0.0313 -0.0102 0 0 10 0
0.7020 0.0310 -0.0096 0 0 10 0
0.6920 0.0314 -0.0091 0 0 10 0
0.6920 0.0314 -0.0091 0 0 10 0
0.6980 0.0311 -0.0090 0 0 10 0
0.7000 0.0305 -0.0106 0 0 10 0
0.7040 0.0303 -0.0108 0 0 10 0
0.7040 0.0303 -0.0108 0 0 0 0
0.7060 0.0302 -0.0085 0 0 10 0
0.7000 0.0285 -0.0078 0 0 10 0
0.7000 0.0285 -0.0078 0 0 10 0
0.7000 0.0281 -0.0065 0 0 10 0
0.7080 0.0278 -0.0077 0 0 10 0
0.7200 0.0274 -0.0075 0 0 0 0
0.7160 0.0263 -0.0014 0 0 10 0
0.7160 0.0263 -0.0033 0 0 10 0
0.7120 0.0261 -0.0036 0 0 10 0
0.7040 0.0255 -0.0030 0 0 0 0
0.6880 0.0256 -0.0003 0 0 10 0
0.7100 0.0252 -0.0005 0 0 10 0
0.7040 0.0249 -0.0010 0 0 10 0
0.6960 0.0247 -0.0020 0 0 10 0
0.6960 0.0247 -0.0020 0 0 10 0
0.6940 0.0252 -0.0024 0 0 10 0
0.6940 0.0252 -0.0024 0 0 10 0
0.7040 0.0253 -0.0024 0 0 10 0
0.7220 0.0255 -0.0045 0 0 10 0
0.7120 0.0253 -0.0038 0 0 10 0
0.7200 0.0250 -0.0019 0 0 10 0
0.7020 0.0244 -0.0038 0 0 10 0
0.7020 0.0244 -0.0038 0 0 10 0
0.7140 0.0240 -0.0007 0 0 0 0
0.6900 0.0226 0.0064 0 0 10 0
0.7240 0.0216 0.0060 0 0 10 0
0.7240 0.0216 0.0060 0 0 10 0
0.7040 0.0203 0.0085 0 0 10 0
0.7040 0.0202 0.0073 0 0 10 0
0.7280 0.0204 0.0100 0 0 10 0
0.7080 0.0203 0.0097 0 0 10 0
0.7080 0.0203 0.0097 0 0 10 0
0.7260 0.0198 0.0069 0 0 10 0
0.7260 0.0198 0.0069 0 0 0 0
0.7180 0.0184 0.0050 0 0 10 0
0.7260 0.0171 0.0008 0 0 10 0
0.7180 0.0167 0.0005 0 0 10 0
0.7220 0.0162 0.0017 0 0 0 0
0.7160 0.0159 -0.0015 0 0 10 0
0.7320 0.0151 -0.0014 0 0 10 0
0.7240 0.0146 -0.0025 0 0 10 0
0.7300 0.0141 -0.0012 0 0 0 0
0.7140 0.0145 -0.0022 0 0 10 0
0.7140 0.0141 -0.0017 0 0 10 0
0.7240 0.0141 -0.0044 0 0 10 0
0.7300 0.0139 -0.0048 0 0 10 0
0.7220 0.0138 0.0003 0 0 10 0
0.7200 0.0136 -0.0006 0 0 0 0
0.7080 0.0133 0.0004 0 0 10 0
0.7060 0.0131 0.0014 0 0 10 0
0.7340 0.0126 0.0015 0 0 10 0
0.7340 0.0126 0.0015 0 0 10 0
0.7220 0.0124 0.0016 0 0 10 0
0.7200 0.0121 0.0015 0 0 0 0
0.7060 0.0103 0.0038 0 0 10 0
0.7180 0.0094 0.0010 0 0 10 0
0.7120 0.0089 -0.0007 0 0 10 0
0.7120 0.0089 -0.0007 0 0 10 0
0.7160 0.0086 -0.0014 0 0 0 0
0.7200 0.0082 0.0014 0 0 10 0
0.7260 0.0056 0.0000 0 0 10 0
0.7420 0.0053 -0.0018 0 0 10 0
0.7420 0.0053 -0.0018 0 0 10 0
0.7400 0.0054 -0.0004 0 0 0 0
