0.5300 0.2156 -0.0094 0 0 10 0
0.5400 0.2158 -0.0067 0 0 10 0
0.5560 0.2160 -0.0145 0 0 10 0
0.5620 0.2166 -0.0156 0 0 10 0
0.5520 0.2170 -0.0181 0 0 10 0
0.5520 0.2172 -0.0176 0 0 10 0
0.5440 0.2172 -0.0176 0 0 10 0
0.5340 0.2172 -0.0179 0 0 10 0
0.5480 0.2171 -0.0183 0 0 10 0
0.5480 0.2165 -0.0183 0 0 10 0
0.5500 0.2160 -0.0178 0 0 10 0
0.5500 0.2160 -0.0178 0 0 10 0
0.5320 0.2161 -0.0166 0 0 10 0
0.5340 0.2158 -0.0193 0 0 10 0
0.5460 0.2153 -0.0200 0 0 10 0
0.5380 0.2151 -0.0201 0 0 10 0
0.5380 0.2151 -0.0201 0 0 10 0
0.5360 0.2144 -0.0232 0 0 10 0
0.5480 0.2141 -0.0232 0 0 10 0
0.5320 0.2141 -0.0239 0 0 10 0
0.5420 0.2136 -0.0229 0 0 10 0
0.5720 0.2130 -0.0237 0 0 10 0
0.5720 0.2130 -0.0237 0 0 10 0
0.5720 0.2121 -0.0229 0 0 10 0
0.5460 0.2115 -0.0230 0 0 10 0
0.5520 0.2108 -0.0222 0 0 10 0
0.5580 0.2104 -0.0246 0 0 10 0
0.5640 0.2103 -0.0237 0 0 10 0
0.5640 0.2103 -0.0237 0 0 10 0
0.5600 0.2098 -0.0231 0 0 10 0
0.5620 0.2094 -0.0246 0 0 10 0
0.5660 0.2094 -0.0253 0 0 10 0
0.5420 0.2088 -0.0238 0 0 10 0
0.5520 0.2088 -0.0248 0 0 10 0
0.5520 0.2088 -0.0248 0 0 10 0
0.5360 0.2084 -0.0261 0 0 10 0
0.5460 0.2076 -0.0276 0 0 10 0
0.5280 0.2069 -0.0262 0 0 10 0
0.5660 0.2062 -0.0271 0 0 10 0
0.5480 0.2060 -0.0269 0 0 10 0
0.5480 0.2060 -0.0269 0 0 10 0
0.5560 0.2050 -0.0272 0 0 10 0
0.5580 0.2047 -0.0250 0 0 10 0
0.5560 0.2042 -0.0262 0 0 10 0
0.5580 0.2040 -0.0269 0 0 10 0
0.5580 0.2040 -0.0269 0 0 10 0
0.5500 0.2038 -0.0314 0 0 10 0
0.5340 0.2038 -0.0307 0 0 10 0
0.5400 0.2037 -0.0320 0 0 10 0
0.5400 0.2037 -0.0320 0 0 10 0
0.5640 0.2030 -0.0308 0 0 10 0
0.5540 0.2025 -0.0286 0 0 10 0
0.5460 0.2018 -0.0279 0 0 10 0
0.5500 0.2013 -0.0279 0 0 10 0
0.5460 0.2014 -0.0306 0 0 10 0
0.5400 0.2012 -0.0309 0 0 10 0
0.5400 0.2012 -0.0309 0 0 10 0
0.5540 0.2013 -0.0287 0 0 10 0
0.5380 0.2010 -0.0276 0 0 10 0
0.5380 0.2010 -0.0276 0 0 10 0
0.5320 0.2006 -0.0273 0 0 10 0
0.5400 0.2002 -0.0263 0 0 10 0
0.5400 0.2002 -0.0263 0 0 10 0
0.5680 0.2000 -0.0230 0 0 10 0
0.5360 0.1996 -0.0236 0 0 10 0
0.5420 0.1992 -0.0250 0 0 10 0
0.5580 0.1982 -0.0252 0 0 10 0
0.5360 0.1975 -0.0260 0 0 10 0
0.5380 0.1967 -0.0284 0 0 10 0
0.5640 0.1963 -0.0304 0 0 10 0
0.5560 0.1967 -0.0294 0 0 10 0
0.5420 0.1967 -0.0272 0 0 10 0
0.5520 0.1962 -0.0265 0 0 10 0
0.5160 0.1958 -0.0267 0 0 10 0
0.5400 0.1955 -0.0260 0 0 10 0
0.5200 0.1949 -0.0282 0 0 10 0
0.5620 0.1945 -0.0309 0 0 10 0
0.5380 0.1941 -0.0305 0 0 10 0
0.5380 0.1941 -0.0305 0 0 10 0
0.5440 0.1938 -0.0318 0 0 10 0
0.5440 0.1937 -0.0289 0 0 10 0
0.5440 0.1937 -0.0289 0 0 10 0
0.5500 0.1928 -0.0257 0 0 10 0
0.5460 0.1928 -0.0257 0 0 10 0
0.5400 0.1923 -0.0249 0 0 10 0
0.5400 0.1918 -0.0284 0 0 10 0
0.5760 0.1914 -0.0278 0 0 10 0
0.5340 0.1909 -0.0224 0 0 10 0
0.5340 0.1909 -0.0224 0 0 10 0
0.5360 0.1904 -0.0215 0 0 10 0
0.5440 0.1898 -0.0257 0 0 10 0
0.5500 0.1893 -0.0255 0 0 10 0
0.5500 0.1893 -0.0255 0 0 10 0
0.5540 0.1882 -0.0292 0 0 10 0
0.5480 0.1878 -0.0301 0 0 10 0
0.5480 0.1878 -0.0301 0 0 10 0
0.5420 0.1876 -0.0295 0 0 10 0
0.5460 0.1876 -0.0287 0 0 10 0
0.5540 0.1870 -0.0287 0 0 10 0
0.5540 0.1870 -0.0287 0 0 10 0
0.5520 0.1862 -0.0279 0 0 10 0
0.5440 0.1858 -0.0275 0 0 10 0
0.5380 0.1855 -0.0273 0 0 10 0
0.5300 0.1856 -0.0254 0 0 10 0
0.5240 0.1859 -0.0247 0 0 10 0
0.5420 0.1859 -0.0229 0 0 10 0
0.5420 0.1859 -0.0229 0 0 10 0
0.5500 0.1855 -0.0225 0 0 10 0
0.5640 0.1848 -0.0236 0 0 10 0
0.5320 0.1841 -0.0255 0 0 10 0
0.5340 0.1835 -0.0258 0 0 10 0
0.5340 0.1835 -0.0258 0 0 10 0
0.5420 0.1826 -0.0259 0 0 10 0
0.5540 0.1821 -0.0229 0 0 10 0
0.5600 0.1820 -0.0220 0 0 10 0
0.5600 0.1820 -0.0220 0 0 10 0
0.5500 0.1813 -0.0224 0 0 10 0
0.5340 0.1807 -0.0231 0 0 10 0
0.5440 0.1803 -0.0227 0 0 10 0
0.5700 0.1799 -0.0236 0 0 10 0
0.5660 0.1794 -0.0262 0 0 10 0
0.5560 0.1794 -0.0258 0 0 10 0
0.5560 0.1794 -0.0258 0 0 10 0
0.5420 0.1793 -0.0267 0 0 10 0
0.5440 0.1787 -0.0269 0 0 10 0
0.5520 0.1786 -0.0278 0 0 10 0
0.5520 0.1786 -0.0278 0 0 10 0
0.5500 0.1785 -0.0278 0 0 10 0
0.5180 0.1783 -0.0277 0 0 10 0
0.5420 0.1784 -0.0263 0 0 10 0
0.5460 0.1778 -0.0265 0 0 10 0
0.5460 0.1778 -0.0265 0 0 10 0
0.5480 0.1763 -0.0248 0 0 10 0
0.5480 0.1763 -0.0248 0 0 10 0
0.5640 0.1754 -0.0263 0 0 10 0
0.5540 0.1746 -0.0258 0 0 10 0
0.5500 0.1743 -0.0249 0 0 10 0
0.5500 0.1739 -0.0248 0 0 10 0
0.5500 0.1739 -0.0248 0 0 10 0
0.5340 0.1731 -0.0263 0 0 10 0
0.5340 0.1731 -0.0263 0 0 10 0
0.5460 0.1724 -0.0223 0 0 10 0
0.5600 0.1719 -0.0225 0 0 10 0
0.5600 0.1718 -0.0222 0 0 10 0
0.5600 0.1718 -0.0222 0 0 10 0
0.5580 0.1712 -0.0226 0 0 10 0
0.5400 0.1708 -0.0228 0 0 10 0
0.5380 0.1708 -0.0234 0 0 10 0
0.5520 0.1703 -0.0231 0 0 10 0
0.5520 0.1703 -0.0231 0 0 10 0
0.5360 0.1698 -0.0247 0 0 10 0
0.5640 0.1693 -0.0243 0 0 10 0
0.5580 0.1685 -0.0250 0 0 10 0
0.5400 0.1674 -0.0264 0 0 10 0
0.5400 0.1674 -0.0264 0 0 10 0
0.5200 0.1673 -0.0261 0 0 10 0
0.5620 0.1669 -0.0272 0 0 10 0
0.5440 0.1669 -0.0245 0 0 10 0
0.5440 0.1669 -0.0245 0 0 10 0
0.5460 0.1668 -0.0245 0 0 10 0
0.5460 0.1666 -0.0243 0 0 10 0
0.5380 0.1665 -0.0248 0 0 10 0
0.5480 0.1662 -0.0238 0 0 10 0
0.5480 0.1662 -0.0238 0 0 10 0
0.5660 0.1657 -0.0239 0 0 10 0
0.5720 0.1647 -0.0227 0 0 10 0
0.5700 0.1642 -0.0227 0 0 10 0
0.5360 0.1639 -0.0199 0 0 10 0
0.5520 0.1634 -0.0197 0 0 10 0
0.5520 0.1634 -0.0197 0 0 10 0
0.5400 0.1629 -0.0203 0 0 10 0
0.5440 0.1624 -0.0180 0 0 10 0
0.5380 0.1620 -0.0177 0 0 10 0
0.5540 0.1617 -0.0179 0 0 10 0
0.5440 0.1607 -0.0153 0 0 10 0
0.5500 0.1604 -0.0153 0 0 10 0
0.5480 0.1604 -0.0168 0 0 10 0
0.5560 0.1601 -0.0171 0 0 10 0
0.5560 0.1601 -0.0171 0 0 10 0
0.5360 0.1596 -0.0166 0 0 10 0
0.5800 0.1593 -0.0168 0 0 10 0
0.5600 0.1590 -0.0172 0 0 10 0
0.5500 0.1589 -0.0158 0 0 10 0
0.5500 0.1589 -0.0158 0 0 10 0
0.5300 0.1580 -0.0154 0 0 10 0
0.5540 0.1566 -0.0161 0 0 10 0
0.5300 0.1562 -0.0161 0 0 10 0
0.5500 0.1559 -0.0146 0 0 10 0
0.5500 0.1559 -0.0146 0 0 10 0
0.5720 0.1555 -0.0150 0 0 10 0
0.5560 0.1542 -0.0184 0 0 10 0
0.5420 0.1539 -0.0185 0 0 10 0
0.5360 0.1537 -0.0184 0 0 10 0
0.5740 0.1533 -0.0178 0 0 10 0
0.5740 0.1533 -0.0178 0 0 10 0
0.5700 0.1536 -0.0145 0 0 10 0
0.5680 0.1535 -0.0128 0 0 10 0
0.5820 0.1531 -0.0109 0 0 10 0
0.5820 0.1529 -0.0102 0 0 10 0
0.5740 0.1523 -0.0070 0 0 10 0
0.5740 0.1523 -0.0070 0 0 10 0
0.5640 0.1516 -0.0054 0 0 10 0
0.5680 0.1508 -0.0043 0 0 10 0
0.5500 0.1504 -0.0041 0 0 10 0
0.5440 0.1494 -0.0022 0 0 10 0
0.5440 0.1494 -0.0022 0 0 10 0
0.5820 0.1491 -0.0033 0 0 10 0
0.5720 0.1487 -0.0025 0 0 10 0
0.6040 0.1482 -0.0008 0 0 10 0
0.5960 0.1477 -0.0013 0 0 10 0
0.5600 0.1470 -0.0013 0 0 10 0
0.5600 0.1470 -0.0013 0 0 10 0
0.5780 0.1463 -0.0016 0 0 10 0
0.5680 0.1463 -0.0014 0 0 10 0
0.5680 0.1456 -0.0024 0 0 10 0
0.5880 0.1451 -0.0030 0 0 10 0
0.5880 0.1444 -0.0025 0 0 10 0
0.5880 0.1444 -0.0025 0 0 10 0
0.5660 0.1443 -0.0011 0 0 10 0
0.5840 0.1441 0.0011 0 0 10 0
0.5900 0.1442 0.0015 0 0 10 0
0.5960 0.1437 0.0033 0 0 10 0
0.5960 0.1429 0.0057 0 0 10 0
0.5680 0.1429 0.0057 0 0 10 0
0.5860 0.1419 0.0087 0 0 10 0
0.5860 0.1419 0.0087 0 0 10 0
0.6000 0.1419 0.0084 0 0 10 0
0.6120 0.1415 0.0086 0 0 10 0
0.6060 0.1412 0.0081 0 0 10 0
0.5820 0.1406 0.0086 0 0 10 0
0.5820 0.1406 0.0086 0 0 10 0
0.5900 0.1401 0.0085 0 0 10 0
0.5940 0.1397 0.0081 0 0 10 0
0.5920 0.1393 0.0079 0 0 10 0
0.5860 0.1391 0.0088 0 0 10 0
0.5960 0.1384 0.0058 0 0 10 0
0.6020 0.1384 0.0058 0 0 10 0
0.6100 0.1373 0.0069 0 0 10 0
0.6180 0.1366 0.0094 0 0 10 0
0.6120 0.1358 0.0075 0 0 10 0
0.6120 0.1358 0.0075 0 0 10 0
0.6120 0.1357 0.0083 0 0 10 0
0.6260 0.1357 0.0072 0 0 10 0
0.6160 0.1359 0.0072 0 0 10 0
0.5940 0.1352 0.0057 0 0 10 0
0.5820 0.1346 0.0053 0 0 10 0
0.6100 0.1343 0.0051 0 0 10 0
0.6100 0.1343 0.0051 0 0 10 0
0.6260 0.1337 0.0060 0 0 10 0
0.6220 0.1333 0.0051 0 0 10 0
0.6200 0.1333 0.0043 0 0 10 0
0.6200 0.1333 0.0043 0 0 10 0
0.6160 0.1327 0.0054 0 0 10 0
0.6000 0.1328 0.0050 0 0 10 0
0.6020 0.1327 0.0048 0 0 10 0
0.6020 0.1327 0.0048 0 0 10 0
0.5740 0.1307 0.0037 0 0 10 0
0.5740 0.1305 0.0032 0 0 10 0
0.6180 0.1305 0.0032 0 0 10 0
0.6260 0.1300 0.0033 0 0 10 0
0.6160 0.1297 0.0034 0 0 10 0
0.6060 0.1294 0.0029 0 0 10 0
0.6060 0.1294 0.0029 0 0 10 0
0.6060 0.1286 0.0010 0 0 10 0
0.6120 0.1285 0.0006 0 0 10 0
0.6040 0.1282 0.0002 0 0 10 0
0.6080 0.1272 -0.0023 0 0 10 0
0.6080 0.1272 -0.0023 0 0 10 0
0.6240 0.1270 -0.0016 0 0 10 0
0.6120 0.1261 -0.0035 0 0 10 0
0.6120 0.1261 -0.0035 0 0 10 0
0.6100 0.1254 -0.0034 0 0 10 0
0.6320 0.1253 -0.0011 0 0 10 0
0.6220 0.1243 -0.0006 0 0 10 0
0.6260 0.1238 -0.0017 0 0 10 0
0.6260 0.1238 -0.0017 0 0 10 0
0.6060 0.1237 -0.0004 0 0 10 0
0.6060 0.1237 -0.0004 0 0 10 0
0.5940 0.1236 -0.0023 0 0 10 0
0.6000 0.1234 -0.0025 0 0 10 0
0.6100 0.1230 -0.0016 0 0 10 0
0.6260 0.1222 -0.0009 0 0 10 0
0.6280 0.1216 -0.0009 0 0 10 0
0.6280 0.1216 -0.0009 0 0 10 0
0.6240 0.1211 -0.0006 0 0 10 0
0.6000 0.1206 -0.0006 0 0 10 0
0.6100 0.1200 0.0002 0 0 10 0
0.6100 0.1200 0.0002 0 0 10 0
0.6160 0.1198 -0.0002 0 0 10 0
0.6220 0.1189 0.0021 0 0 10 0
0.6180 0.1189 0.0021 0 0 10 0
0.6000 0.1183 0.0016 0 0 10 0
0.6080 0.1178 0.0012 0 0 10 0
0.6080 0.1178 0.0012 0 0 10 0
0.6520 0.1167 0.0025 0 0 10 0
0.6300 0.1163 0.0004 0 0 10 0
0.6140 0.1159 -0.0000 0 0 10 0
0.6140 0.1158 0.0019 0 0 10 0
0.6260 0.1158 0.0019 0 0 10 0
0.6160 0.1149 -0.0002 0 0 10 0
0.6140 0.1149 -0.0002 0 0 10 0
0.6280 0.1139 0.0003 0 0 10 0
0.6280 0.1139 0.0003 0 0 10 0
0.6160 0.1135 -0.0008 0 0 10 0
0.6160 0.1135 -0.0008 0 0 10 0
0.6160 0.1128 -0.0018 0 0 10 0
0.6140 0.1126 -0.0015 0 0 10 0
0.6260 0.1125 -0.0009 0 0 10 0
0.6220 0.1124 -0.0017 0 0 10 0
0.6220 0.1124 -0.0017 0 0 10 0
0.6300 0.1118 0.0023 0 0 10 0
0.6300 0.1118 0.0023 0 0 10 0
0.6240 0.1116 0.0031 0 0 10 0
0.6100 0.1102 0.0029 0 0 10 0
0.6100 0.1102 0.0029 0 0 10 0
0.6160 0.1097 0.0039 0 0 10 0
0.6020 0.1099 0.0025 0 0 10 0
0.6160 0.1100 0.0019 0 0 10 0
0.6220 0.1097 0.0047 0 0 10 0
0.6220 0.1097 0.0047 0 0 10 0
0.6080 0.1089 0.0045 0 0 10 0
0.6160 0.1077 0.0027 0 0 10 0
0.6380 0.1069 0.0023 0 0 10 0
0.6380 0.1069 0.0023 0 0 10 0
0.6100 0.1067 0.0021 0 0 10 0
0.6240 0.1067 0.0021 0 0 10 0
0.6300 0.1063 0.0021 0 0 10 0
0.6220 0.1056 0.0020 0 0 10 0
0.6360 0.1053 0.0033 0 0 10 0
0.6180 0.1047 0.0029 0 0 10 0
0.6180 0.1047 0.0029 0 0 10 0
0.6420 0.1044 0.0029 0 0 10 0
0.6320 0.1040 0.0023 0 0 10 0
0.6360 0.1035 0.0005 0 0 10 0
0.6340 0.1025 0.0006 0 0 10 0
0.6340 0.1021 0.0016 0 0 10 0
0.6120 0.1021 0.0016 0 0 10 0
0.6200 0.1017 0.0027 0 0 10 0
0.6160 0.1025 0.0017 0 0 10 0
0.6160 0.1025 0.0017 0 0 10 0
0.6140 0.1024 0.0016 0 0 10 0
0.6480 0.1016 0.0011 0 0 10 0
0.6360 0.1010 0.0030 0 0 10 0
0.6280 0.1003 0.0035 0 0 10 0
0.6100 0.0999 0.0056 0 0 10 0
0.6220 0.0997 0.0053 0 0 10 0
0.6220 0.0994 0.0070 0 0 10 0
0.6120 0.0991 0.0062 0 0 10 0
0.6320 0.0988 0.0065 0 0 10 0
0.6240 0.0981 0.0059 0 0 10 0
0.6180 0.0976 0.0073 0 0 10 0
0.6180 0.0976 0.0073 0 0 10 0
0.6160 0.0976 0.0065 0 0 10 0
0.6340 0.0970 0.0066 0 0 10 0
0.6240 0.0968 0.0062 0 0 10 0
0.6280 0.0966 0.0076 0 0 10 0
0.6280 0.0966 0.0076 0 0 10 0
0.6140 0.0957 0.0067 0 0 10 0
0.6560 0.0959 0.0063 0 0 10 0
0.6380 0.0954 0.0074 0 0 10 0
0.6380 0.0949 0.0048 0 0 10 0
0.6300 0.0949 0.0048 0 0 10 0
0.6260 0.0940 0.0058 0 0 10 0
0.6420 0.0933 0.0051 0 0 10 0
0.6260 0.0936 0.0038 0 0 10 0
0.6240 0.0934 0.0035 0 0 10 0
0.6380 0.0931 0.0028 0 0 10 0
0.6380 0.0931 0.0028 0 0 10 0
0.6220 0.0923 0.0015 0 0 10 0
0.6220 0.0912 -0.0004 0 0 10 0
0.6460 0.0907 0.0007 0 0 10 0
0.6360 0.0907 0.0008 0 0 10 0
0.6400 0.0908 0.0015 0 0 10 0
0.6400 0.0908 0.0015 0 0 10 0
0.6560 0.0909 0.0006 0 0 10 0
0.6520 0.0911 0.0011 0 0 10 0
0.6380 0.0905 0.0021 0 0 10 0
0.6480 0.0900 0.0029 0 0 10 0
0.6460 0.0894 0.0023 0 0 10 0
0.6460 0.0890 0.0047 0 0 10 0
0.6460 0.0890 0.0047 0 0 10 0
0.6500 0.0884 0.0044 0 0 10 0
0.6300 0.0879 0.0045 0 0 10 0
0.6520 0.0873 0.0045 0 0 10 0
0.6440 0.0865 0.0068 0 0 10 0
0.6440 0.0865 0.0068 0 0 10 0
0.6340 0.0860 0.0059 0 0 10 0
0.6460 0.0858 0.0062 0 0 10 0
0.6620 0.0855 0.0060 0 0 10 0
0.6620 0.0848 0.0072 0 0 10 0
0.6400 0.0842 0.0068 0 0 10 0
0.6400 0.0842 0.0068 0 0 10 0
0.6540 0.0838 0.0073 0 0 10 0
0.6540 0.0833 0.0079 0 0 10 0
0.6420 0.0829 0.0083 0 0 10 0
0.6500 0.0825 0.0075 0 0 10 0
0.6500 0.0825 0.0075 0 0 10 0
0.6420 0.0816 0.0074 0 0 10 0
0.6400 0.0816 0.0074 0 0 10 0
0.6280 0.0812 0.0074 0 0 10 0
0.6340 0.0802 0.0052 0 0 10 0
0.6380 0.0799 0.0056 0 0 10 0
0.6380 0.0799 0.0056 0 0 10 0
0.6300 0.0797 0.0036 0 0 10 0
0.6140 0.0797 0.0036 0 0 10 0
0.6240 0.0795 0.0051 0 0 10 0
0.6320 0.0783 0.0067 0 0 10 0
0.6200 0.0778 0.0063 0 0 10 0
0.6240 0.0771 0.0056 0 0 10 0
0.6240 0.0771 0.0056 0 0 10 0
0.6400 0.0761 0.0053 0 0 10 0
0.6280 0.0763 0.0043 0 0 10 0
0.6280 0.0763 0.0043 0 0 10 0
0.6460 0.0763 0.0032 0 0 10 0
0.6440 0.0763 0.0032 0 0 10 0
0.6420 0.0758 0.0031 0 0 10 0
0.6240 0.0752 0.0018 0 0 10 0
0.6240 0.0747 0.0014 0 0 10 0
0.6220 0.0741 0.0035 0 0 10 0
0.6220 0.0741 0.0035 0 0 10 0
0.6500 0.0734 0.0039 0 0 10 0
0.6460 0.0730 0.0059 0 0 10 0
0.6320 0.0725 0.0073 0 0 10 0
0.6320 0.0725 0.0073 0 0 10 0
0.6340 0.0719 0.0079 0 0 10 0
0.6400 0.0713 0.0078 0 0 10 0
0.6400 0.0713 0.0078 0 0 10 0
0.6440 0.0705 0.0078 0 0 10 0
0.6460 0.0702 0.0081 0 0 10 0
0.6420 0.0694 0.0064 0 0 10 0
0.6420 0.0694 0.0064 0 0 10 0
0.6300 0.0686 0.0073 0 0 10 0
0.6180 0.0678 0.0091 0 0 10 0
0.6660 0.0672 0.0097 0 0 10 0
0.6660 0.0672 0.0097 0 0 10 0
0.6480 0.0664 0.0073 0 0 10 0
0.6480 0.0663 0.0080 0 0 10 0
0.6500 0.0663 0.0080 0 0 10 0
0.6420 0.0655 0.0052 0 0 10 0
0.6320 0.0647 0.0053 0 0 10 0
0.6540 0.0637 0.0041 0 0 10 0
0.6420 0.0631 0.0040 0 0 10 0
0.6500 0.0632 0.0016 0 0 10 0
0.6640 0.0634 0.0013 0 0 10 0
0.6640 0.0634 0.0013 0 0 10 0
0.6760 0.0636 0.0031 0 0 10 0
0.6420 0.0632 0.0026 0 0 10 0
0.6420 0.0632 0.0026 0 0 10 0
0.6420 0.0619 0.0035 0 0 10 0
0.6420 0.0619 0.0035 0 0 10 0
0.6500 0.0611 0.0029 0 0 10 0
0.6560 0.0604 0.0011 0 0 10 0
0.6620 0.0605 0.0018 0 0 10 0
0.6620 0.0601 -0.0015 0 0 10 0
0.6520 0.0601 -0.0015 0 0 10 0
0.6400 0.0593 -0.0018 0 0 10 0
0.6580 0.0590 -0.0018 0 0 10 0
0.6420 0.0585 -0.0025 0 0 10 0
0.6480 0.0581 -0.0052 0 0 10 0
0.6480 0.0581 -0.0052 0 0 10 0
0.6660 0.0575 -0.0056 0 0 10 0
0.6660 0.0570 -0.0051 0 0 10 0
0.6660 0.0570 -0.0051 0 0 10 0
0.6560 0.0566 -0.0055 0 0 10 0
0.6760 0.0565 -0.0045 0 0 10 0
0.6720 0.0564 -0.0039 0 0 10 0
0.6720 0.0564 -0.0039 0 0 10 0
0.6600 0.0547 -0.0065 0 0 10 0
0.6700 0.0540 -0.0064 0 0 10 0
0.6760 0.0537 -0.0073 0 0 10 0
0.6740 0.0531 -0.0076 0 0 10 0
0.6740 0.0531 -0.0076 0 0 10 0
0.6720 0.0528 -0.0076 0 0 10 0
0.6500 0.0521 -0.0083 0 0 10 0
0.6620 0.0517 -0.0099 0 0 10 0
0.6620 0.0517 -0.0099 0 0 10 0
0.6760 0.0516 -0.0097 0 0 10 0
0.6620 0.0513 -0.0094 0 0 10 0
0.6600 0.0511 -0.0089 0 0 10 0
0.6900 0.0509 -0.0103 0 0 10 0
0.6900 0.0509 -0.0103 0 0 10 0
0.6500 0.0500 -0.0077 0 0 10 0
0.6500 0.0500 -0.0077 0 0 10 0
0.6760 0.0496 -0.0077 0 0 10 0
0.6560 0.0496 -0.0080 0 0 10 0
0.6620 0.0491 -0.0073 0 0 10 0
0.6440 0.0488 -0.0077 0 0 10 0
0.6440 0.0488 -0.0077 0 0 10 0
0.6560 0.0487 -0.0107 0 0 10 0
0.6580 0.0486 -0.0107 0 0 10 0
0.6580 0.0486 -0.0107 0 0 10 0
0.6720 0.0480 -0.0113 0 0 10 0
0.6760 0.0470 -0.0128 0 0 10 0
0.6760 0.0470 -0.0128 0 0 10 0
0.6960 0.0461 -0.0130 0 0 10 0
0.6800 0.0457 -0.0117 0 0 10 0
0.6780 0.0454 -0.0120 0 0 10 0
0.6760 0.0455 -0.0128 0 0 10 0
0.6760 0.0455 -0.0128 0 0 10 0
0.6680 0.0455 -0.0130 0 0 10 0
0.6700 0.0451 -0.0115 0 0 10 0
0.6820 0.0448 -0.0156 0 0 10 0
0.6980 0.0444 -0.0151 0 0 10 0
0.6840 0.0436 -0.0126 0 0 10 0
0.6840 0.0436 -0.0126 0 0 10 0
0.6780 0.0429 -0.0131 0 0 10 0
0.6840 0.0418 -0.0126 0 0 10 0
0.6720 0.0411 -0.0128 0 0 10 0
0.6660 0.0411 -0.0116 0 0 10 0
0.6620 0.0410 -0.0123 0 0 10 0
0.6620 0.0410 -0.0123 0 0 10 0
0.6640 0.0406 -0.0121 0 0 10 0
0.6840 0.0395 -0.0115 0 0 10 0
0.6940 0.0390 -0.0111 0 0 10 0
0.6940 0.0390 -0.0111 0 0 10 0
0.6740 0.0384 -0.0112 0 0 10 0
0.6880 0.0381 -0.0116 0 0 10 0
0.6600 0.0375 -0.0100 0 0 10 0
0.6760 0.0367 -0.0107 0 0 10 0
0.6820 0.0367 -0.0107 0 0 10 0
0.6700 0.0363 -0.0074 0 0 10 0
0.7020 0.0361 -0.0067 0 0 10 0
0.6760 0.0359 -0.0068 0 0 10 0
0.6640 0.0352 -0.0060 0 0 10 0
0.6640 0.0352 -0.0060 0 0 10 0
0.6620 0.0346 -0.0075 0 0 10 0
0.6720 0.0344 -0.0070 0 0 10 0
0.6800 0.0342 -0.0075 0 0 10 0
0.6880 0.0339 -0.0074 0 0 10 0
0.6960 0.0333 -0.0052 0 0 10 0
0.6960 0.0333 -0.0052 0 0 10 0
0.6660 0.0330 -0.0050 0 0 10 0
0.6620 0.0330 -0.0051 0 0 10 0
0.6820 0.0327 -0.0032 0 0 10 0
0.6600 0.0324 -0.0030 0 0 10 0
0.6720 0.0317 -0.0047 0 0 10 0
0.6860 0.0308 -0.0043 0 0 10 0
0.7120 0.0303 -0.0020 0 0 10 0
0.6760 0.0300 -0.0026 0 0 10 0
0.6840 0.0297 -0.0030 0 0 10 0
0.6600 0.0292 -0.0031 0 0 10 0
0.6600 0.0292 -0.0031 0 0 10 0
0.6900 0.0287 -0.0044 0 0 10 0
0.6840 0.0282 -0.0055 0 0 10 0
0.6760 0.0280 -0.0048 0 0 10 0
0.6860 0.0278 -0.0054 0 0 10 0
0.6980 0.0276 -0.0050 0 0 10 0
0.6980 0.0276 -0.0050 0 0 10 0
0.6860 0.0274 -0.0049 0 0 10 0
0.6980 0.0265 -0.0041 0 0 10 0
0.6960 0.0263 -0.0057 0 0 10 0
0.6960 0.0263 -0.0057 0 0 10 0
0.6840 0.0259 -0.0050 0 0 10 0
0.7080 0.0259 -0.0026 0 0 10 0
0.7000 0.0258 -0.0022 0 0 10 0
0.6900 0.0253 -0.0036 0 0 10 0
0.7040 0.0248 -0.0031 0 0 10 0
0.7040 0.0248 -0.0031 0 0 10 0
0.6920 0.0242 -0.0025 0 0 10 0
0.7100 0.0235 -0.0008 0 0 10 0
0.6900 0.0231 -0.0012 0 0 10 0
0.6980 0.0227 -0.0012 0 0 10 0
0.6980 0.0227 -0.0012 0 0 10 0
0.6860 0.0227 -0.0001 0 0 10 0
0.6860 0.0227 -0.0001 0 0 10 0
0.6980 0.0223 0.0001 0 0 10 0
0.6820 0.0220 0.0001 0 0 10 0
0.7080 0.0213 -0.0002 0 0 10 0
0.6840 0.0209 -0.0004 0 0 10 0
0.6840 0.0209 -0.0004 0 0 10 0
0.6960 0.0201 -0.0003 0 0 10 0
0.7160 0.0196 -0.0004 0 0 10 0
0.6820 0.0188 -0.0001 0 0 10 0
0.6820 0.0188 -0.0001 0 0 10 0
0.6660 0.0183 0.0002 0 0 10 0
0.6900 0.0182 0.0001 0 0 10 0
0.7040 0.0183 -0.0018 0 0 10 0
0.7140 0.0178 -0.0035 0 0 10 0
0.7140 0.0169 -0.0031 0 0 10 0
0.7140 0.0161 -0.0020 0 0 10 0
0.7140 0.0161 -0.0020 0 0 10 0
0.7040 0.0153 -0.0024 0 0 10 0
0.6900 0.0150 -0.0027 0 0 10 0
0.6920 0.0149 -0.0027 0 0 10 0
0.7280 0.0139 -0.0021 0 0 10 0
0.6980 0.0131 -0.0020 0 0 10 0
0.7040 0.0126 -0.0049 0 0 10 0
0.7140 0.0119 -0.0053 0 0 10 0
0.7160 0.0116 -0.0063 0 0 10 0
0.7160 0.0116 -0.0063 0 0 10 0
0.7400 0.0106 -0.0072 0 0 10 0
0.7020 0.0103 -0.0084 0 0 10 0
0.7000 0.0099 -0.0074 0 0 10 0
0.7000 0.0099 -0.0074 0 0 10 0
0.7000 0.0094 -0.0081 0 0 10 0
0.7000 0.0094 -0.0081 0 0 10 0
0.7100 0.0093 -0.0066 0 0 10 0
0.7000 0.0089 -0.0067 0 0 10 0
0.7080 0.0085 -0.0074 0 0 10 0
0.7080 0.0080 -0.0078 0 0 10 0
0.7260 0.0074 -0.0065 0 0 10 0
0.7260 0.0069 -0.0079 0 0 10 0
0.7300 0.0069 -0.0079 0 0 10 0
0.7300 0.0065 -0.0076 0 0 10 0
0.7300 0.0065 0.0030 0 0 10 0
0.7380 0.0058 0.0031 0 0 10 0
0.7220 0.0053 0.0003 0 0 10 0
0.7400 0.0051 -0.0005 0 0 10 0
0.7400 0.0051 -0.0005 0 0 10 0
0.7340 0.0051 -0.0031 0 0 10 0
