0.5500 0.2259 0.0073 0 0 10 0
0.5580 0.2264 0.0085 0 0 10 0
0.5580 0.2257 0.0060 0 0 10 0
0.5440 0.2256 0.0059 0 0 10 0
0.5440 0.2257 0.0059 0 0 10 0
0.5320 0.2260 0.0061 0 0 10 0
0.5460 0.2262 0.0055 0 0 10 0
0.5460 0.2262 0.0055 0 0 10 0
0.5420 0.2268 0.0026 0 0 10 0
0.5420 0.2268 0.0026 0 0 10 0
0.5420 0.2267 0.0039 0 0 10 0
0.5420 0.2267 0.0039 0 0 10 0
0.5580 0.2259 0.0038 0 0 10 0
0.5620 0.2256 0.0035 0 0 10 0
0.5480 0.2255 0.0031 0 0 10 0
0.5620 0.2257 0.0039 0 0 10 0
0.5660 0.2258 0.0036 0 0 10 0
0.5600 0.2255 0.0032 0 0 10 0
0.5600 0.2255 0.0032 0 0 10 0
0.5480 0.2253 0.0030 0 0 10 0
0.5320 0.2248 0.0043 0 0 10 0
0.5400 0.2244 0.0037 0 0 10 0
0.5580 0.2243 0.0043 0 0 10 0
0.5720 0.2240 0.0080 0 0 10 0
0.5720 0.2240 0.0080 0 0 10 0
0.5560 0.2236 0.0083 0 0 10 0
0.5380 0.2231 0.0069 0 0 10 0
0.5380 0.2223 0.0074 0 0 10 0
0.5480 0.2223 0.0074 0 0 10 0
0.5600 0.2218 0.0106 0 0 10 0
0.5680 0.2201 0.0114 0 0 10 0
0.5420 0.2197 0.0119 0 0 10 0
0.5460 0.2187 0.0119 0 0 10 0
0.5540 0.2182 0.0122 0 0 10 0
0.5540 0.2182 0.0122 0 0 10 0
0.5740 0.2179 0.0089 0 0 10 0
0.5380 0.2175 0.0091 0 0 10 0
0.5580 0.2170 0.0105 0 0 10 0
0.5600 0.2162 0.0095 0 0 10 0
0.5600 0.2158 0.0092 0 0 10 0
0.5540 0.2158 0.0092 0 0 10 0
0.5560 0.2157 0.0113 0 0 10 0
0.5500 0.2154 0.0112 0 0 10 0
0.5440 0.2151 0.0098 0 0 10 0
0.5460 0.2149 0.0098 0 0 10 0
0.5460 0.2149 0.0098 0 0 10 0
0.5520 0.2145 0.0108 0 0 10 0
0.5580 0.2139 0.0107 0 0 10 0
0.5480 0.2132 0.0080 0 0 10 0
0.5520 0.2133 0.0078 0 0 10 0
0.5680 0.2129 0.0099 0 0 10 0
0.5680 0.2129 0.0099 0 0 10 0
0.5560 0.2123 0.0103 0 0 10 0
0.5400 0.2117 0.0076 0 0 10 0
0.5380 0.2113 0.0078 0 0 10 0
0.5280 0.2111 0.0076 0 0 10 0
0.5280 0.2111 0.0076 0 0 10 0
0.5460 0.2111 0.0074 0 0 10 0
0.5640 0.2108 0.0071 0 0 10 0
0.5640 0.2103 0.0072 0 0 10 0
0.5480 0.2096 0.0062 0 0 10 0
0.5540 0.2088 0.0062 0 0 10 0
0.5540 0.2088 0.0062 0 0 10 0
0.5500 0.2084 0.0068 0 0 10 0
0.5700 0.2077 0.0066 0 0 10 0
0.5160 0.2070 0.0066 0 0 10 0
0.5380 0.2065 0.0047 0 0 10 0
0.5360 0.2062 0.0052 0 0 10 0
0.5360 0.2062 0.0052 0 0 10 0
0.5460 0.2059 0.0061 0 0 10 0
0.5500 0.2061 0.0055 0 0 10 0
0.5500 0.2061 0.0055 0 0 10 0
0.5420 0.2059 0.0067 0 0 10 0
0.5600 0.2055 0.0067 0 0 10 0
0.5440 0.2050 0.0072 0 0 10 0
0.5440 0.2050 0.0072 0 0 10 0
0.5740 0.2045 0.0104 0 0 10 0
0.5740 0.2045 0.0104 0 0 10 0
0.5520 0.2042 0.0102 0 0 10 0
0.5340 0.2041 0.0113 0 0 10 0
0.5580 0.2037 0.0116 0 0 10 0
0.5660 0.2032 0.0140 0 0 10 0
0.5660 0.2032 0.0140 0 0 10 0
0.5760 0.2018 0.0137 0 0 10 0
0.5680 0.2016 0.0136 0 0 10 0
0.5660 0.2016 0.0131 0 0 10 0
0.5520 0.2015 0.0130 0 0 10 0
0.5660 0.2012 0.0138 0 0 10 0
0.5640 0.2006 0.0147 0 0 10 0
0.5640 0.2006 0.0147 0 0 10 0
0.5520 0.1994 0.0158 0 0 10 0
0.5540 0.1993 0.0157 0 0 10 0
0.5540 0.1993 0.0157 0 0 10 0
0.5680 0.1988 0.0150 0 0 10 0
0.5600 0.1982 0.0137 0 0 10 0
0.5500 0.1969 0.0118 0 0 10 0
0.5340 0.1965 0.0112 0 0 10 0
0.5340 0.1967 0.0118 0 0 10 0
0.5340 0.1967 0.0118 0 0 10 0
0.5480 0.1964 0.0116 0 0 10 0
0.5460 0.1964 0.0116 0 0 10 0
0.5540 0.1958 0.0115 0 0 10 0
0.5720 0.1952 0.0111 0 0 10 0
0.5560 0.1947 0.0075 0 0 10 0
0.5560 0.1947 0.0075 0 0 10 0
0.5540 0.1943 0.0074 0 0 10 0
0.5640 0.1936 0.0086 0 0 10 0
0.5480 0.1929 0.0083 0 0 10 0
0.5440 0.1924 0.0098 0 0 10 0
0.5660 0.1920 0.0093 0 0 10 0
0.5740 0.1917 0.0118 0 0 10 0
0.5960 0.1918 0.0116 0 0 10 0
0.5640 0.1909 0.0123 0 0 10 0
0.5640 0.1904 0.0132 0 0 10 0
0.5640 0.1904 0.0132 0 0 10 0
0.5640 0.1897 0.0129 0 0 10 0
0.5700 0.1895 0.0126 0 0 10 0
0.5680 0.1892 0.0121 0 0 10 0
0.5720 0.1882 0.0132 0 0 10 0
0.5600 0.1880 0.0130 0 0 10 0
0.5720 0.1879 0.0135 0 0 10 0
0.5720 0.1879 0.0135 0 0 10 0
0.5760 0.1881 0.0138 0 0 10 0
0.5700 0.1879 0.0145 0 0 10 0
0.5700 0.1872 0.0115 0 0 10 0
0.5660 0.1865 0.0117 0 0 10 0
0.5660 0.1865 0.0117 0 0 10 0
0.5580 0.1864 0.0120 0 0 10 0
0.5700 0.1863 0.0113 0 0 10 0
0.5580 0.1859 0.0117 0 0 10 0
0.5520 0.1851 0.0123 0 0 10 0
0.5640 0.1847 0.0079 0 0 10 0
0.5680 0.1839 0.0076 0 0 10 0
0.5680 0.1839 0.0076 0 0 10 0
0.5700 0.1833 0.0096 0 0 10 0
0.5720 0.1831 0.0090 0 0 10 0
0.5640 0.1826 0.0097 0 0 10 0
0.5680 0.1827 0.0096 0 0 10 0
0.5680 0.1827 0.0096 0 0 10 0
0.5480 0.1815 0.0105 0 0 10 0
0.5360 0.1806 0.0086 0 0 10 0
0.5860 0.1802 0.0085 0 0 10 0
0.5460 0.1801 0.0082 0 0 10 0
0.5660 0.1799 0.0076 0 0 10 0
0.5660 0.1799 0.0076 0 0 10 0
0.5560 0.1798 0.0048 0 0 10 0
0.5640 0.1798 0.0047 0 0 10 0
0.5720 0.1794 0.0063 0 0 10 0
0.5540 0.1791 0.0075 0 0 10 0
0.5500 0.1785 0.0076 0 0 10 0
0.5500 0.1785 0.0076 0 0 10 0
0.5640 0.1778 0.0062 0 0 10 0
0.5740 0.1774 0.0060 0 0 10 0
0.5700 0.1768 0.0048 0 0 10 0
0.5760 0.1759 0.0047 0 0 10 0
0.5760 0.1752 0.0058 0 0 10 0
0.5600 0.1743 0.0059 0 0 10 0
0.5600 0.1743 0.0059 0 0 10 0
0.5620 0.1739 0.0071 0 0 10 0
0.5800 0.1741 0.0080 0 0 10 0
0.5620 0.1743 0.0100 0 0 10 0
0.5580 0.1739 0.0103 0 0 10 0
0.5660 0.1732 0.0121 0 0 10 0
0.5660 0.1732 0.0121 0 0 10 0
0.5760 0.1725 0.0122 0 0 10 0
0.5700 0.1722 0.0120 0 0 10 0
0.5740 0.1721 0.0118 0 0 10 0
0.5740 0.1714 0.0128 0 0 10 0
0.5740 0.1714 0.0128 0 0 10 0
0.5780 0.1709 0.0136 0 0 10 0
0.5780 0.1709 0.0136 0 0 10 0
0.5700 0.1703 0.0131 0 0 10 0
0.5700 0.1698 0.0154 0 0 10 0
0.5780 0.1696 0.0148 0 0 10 0
0.5540 0.1692 0.0150 0 0 10 0
0.5700 0.1683 0.0147 0 0 10 0
0.5460 0.1675 0.0172 0 0 10 0
0.5440 0.1672 0.0174 0 0 10 0
0.5600 0.1676 0.0152 0 0 10 0
0.5600 0.1674 0.0162 0 0 10 0
0.5460 0.1671 0.0157 0 0 10 0
0.5700 0.1666 0.0143 0 0 10 0
0.5520 0.1644 0.0166 0 0 10 0
0.5520 0.1644 0.0166 0 0 10 0
0.5640 0.1626 0.0169 0 0 10 0
0.5800 0.1626 0.0152 0 0 10 0
0.5800 0.1631 0.0150 0 0 10 0
0.5800 0.1633 0.0148 0 0 10 0
0.5800 0.1633 0.0148 0 0 10 0
0.5600 0.1629 0.0154 0 0 10 0
0.5680 0.1626 0.0138 0 0 10 0
0.5780 0.1610 0.0133 0 0 10 0
0.5780 0.1610 0.0133 0 0 10 0
0.5660 0.1604 0.0109 0 0 10 0
0.5760 0.1600 0.0096 0 0 10 0
0.5680 0.1596 0.0090 0 0 10 0
0.5660 0.1594 0.0086 0 0 10 0
0.5660 0.1587 0.0077 0 0 10 0
0.5700 0.1587 0.0077 0 0 10 0
0.5660 0.1579 0.0074 0 0 10 0
0.5460 0.1574 0.0084 0 0 10 0
0.5560 0.1567 0.0087 0 0 10 0
0.5680 0.1568 0.0104 0 0 10 0
0.5740 0.1566 0.0102 0 0 10 0
0.5740 0.1566 0.0102 0 0 10 0
0.5700 0.1563 0.0114 0 0 10 0
0.5860 0.1558 0.0110 0 0 10 0
0.5920 0.1547 0.0096 0 0 10 0
0.5840 0.1542 0.0091 0 0 10 0
0.5740 0.1539 0.0091 0 0 10 0
0.5720 0.1539 0.0066 0 0 10 0
0.5780 0.1536 0.0074 0 0 10 0
0.5780 0.1536 0.0074 0 0 10 0
0.5680 0.1530 0.0096 0 0 10 0
0.5720 0.1525 0.0109 0 0 10 0
0.5860 0.1522 0.0092 0 0 10 0
0.5660 0.1517 0.0094 0 0 10 0
0.5660 0.1517 0.0094 0 0 10 0
0.5780 0.1514 0.0093 0 0 10 0
0.5780 0.1516 0.0078 0 0 10 0
0.5800 0.1513 0.0074 0 0 10 0
0.5720 0.1507 0.0082 0 0 10 0
0.5720 0.1502 0.0084 0 0 10 0
0.5720 0.1502 0.0084 0 0 10 0
0.5820 0.1495 0.0079 0 0 10 0
0.5840 0.1491 0.0082 0 0 10 0
0.5960 0.1486 0.0059 0 0 10 0
0.5840 0.1482 0.0050 0 0 10 0
0.5840 0.1482 0.0050 0 0 10 0
0.5960 0.1477 0.0044 0 0 10 0
0.5940 0.1474 0.0037 0 0 10 0
0.5680 0.1471 0.0035 0 0 10 0
0.5760 0.1475 0.0036 0 0 10 0
0.5680 0.1477 0.0031 0 0 10 0
0.5680 0.1472 0.0034 0 0 10 0
0.5920 0.1453 0.0032 0 0 10 0
0.5820 0.1451 0.0031 0 0 10 0
0.5820 0.1451 0.0031 0 0 10 0
0.5680 0.1447 0.0013 0 0 10 0
0.5860 0.1446 0.0011 0 0 10 0
0.5880 0.1444 0.0025 0 0 10 0
0.5900 0.1438 0.0027 0 0 10 0
0.5900 0.1438 0.0027 0 0 10 0
0.6020 0.1435 0.0014 0 0 10 0
0.5900 0.1430 0.0014 0 0 10 0
0.6000 0.1432 -0.0002 0 0 10 0
0.5680 0.1429 0.0006 0 0 10 0
0.5680 0.1429 0.0006 0 0 10 0
0.6080 0.1417 -0.0028 0 0 10 0
0.5980 0.1406 -0.0030 0 0 10 0
0.5960 0.1395 -0.0002 0 0 10 0
0.5960 0.1392 0.0001 0 0 10 0
0.6100 0.1389 0.0007 0 0 10 0
0.6100 0.1389 0.0007 0 0 10 0
0.5960 0.1382 -0.0007 0 0 10 0
0.5960 0.1382 -0.0007 0 0 10 0
0.5860 0.1384 -0.0007 0 0 10 0
0.6000 0.1383 0.0009 0 0 10 0
0.6000 0.1382 0.0007 0 0 10 0
0.5840 0.1377 0.0001 0 0 10 0
0.5840 0.1377 0.0001 0 0 10 0
0.6000 0.1369 0.0002 0 0 10 0
0.5960 0.1363 0.0015 0 0 10 0
0.6220 0.1362 0.0020 0 0 10 0
0.6220 0.1362 0.0020 0 0 10 0
0.6120 0.1361 0.0004 0 0 10 0
0.6120 0.1361 0.0004 0 0 10 0
0.6100 0.1361 0.0007 0 0 10 0
0.6220 0.1362 0.0009 0 0 10 0
0.5980 0.1360 0.0013 0 0 10 0
0.6060 0.1351 0.0026 0 0 10 0
0.6060 0.1351 0.0026 0 0 10 0
0.6100 0.1344 0.0025 0 0 10 0
0.6200 0.1338 0.0010 0 0 10 0
0.6120 0.1335 0.0010 0 0 10 0
0.6120 0.1335 0.0016 0 0 10 0
0.6160 0.1336 0.0015 0 0 10 0
0.6160 0.1336 0.0015 0 0 10 0
0.5980 0.1319 0.0014 0 0 10 0
0.6100 0.1317 0.0035 0 0 10 0
0.6320 0.1319 0.0031 0 0 10 0
0.6320 0.1319 0.0031 0 0 10 0
0.6120 0.1317 0.0026 0 0 10 0
0.6080 0.1319 0.0027 0 0 10 0
0.5860 0.1317 0.0027 0 0 10 0
0.5860 0.1317 0.0027 0 0 10 0
0.5920 0.1311 0.0011 0 0 10 0
0.5920 0.1311 0.0011 0 0 10 0
0.5860 0.1300 0.0013 0 0 10 0
0.6000 0.1296 0.0013 0 0 10 0
0.5980 0.1295 -0.0002 0 0 10 0
0.5980 0.1291 -0.0002 0 0 10 0
0.5980 0.1291 -0.0002 0 0 10 0
0.6060 0.1286 0.0018 0 0 10 0
0.6060 0.1286 0.0018 0 0 10 0
0.5920 0.1286 -0.0008 0 0 10 0
0.5980 0.1281 -0.0010 0 0 10 0
0.5900 0.1279 0.0005 0 0 10 0
0.5900 0.1279 0.0005 0 0 10 0
0.6060 0.1268 0.0011 0 0 10 0
0.6120 0.1259 0.0017 0 0 10 0
0.6180 0.1256 0.0019 0 0 10 0
0.6000 0.1254 0.0047 0 0 10 0
0.5980 0.1253 0.0028 0 0 10 0
0.5940 0.1252 0.0029 0 0 10 0
0.5940 0.1252 0.0029 0 0 10 0
0.6160 0.1242 0.0031 0 0 10 0
0.6200 0.1236 0.0036 0 0 10 0
0.6000 0.1232 0.0038 0 0 10 0
0.6120 0.1229 0.0042 0 0 10 0
0.6180 0.1226 0.0033 0 0 10 0
0.5960 0.1224 0.0038 0 0 10 0
0.5900 0.1223 0.0033 0 0 10 0
0.5900 0.1223 0.0033 0 0 10 0
0.5940 0.1215 0.0060 0 0 10 0
0.6020 0.1208 0.0063 0 0 10 0
0.5940 0.1204 0.0052 0 0 10 0
0.6100 0.1201 0.0056 0 0 10 0
0.6060 0.1198 0.0061 0 0 10 0
0.6080 0.1195 0.0056 0 0 10 0
0.6200 0.1193 0.0055 0 0 10 0
0.6200 0.1193 0.0055 0 0 10 0
0.6100 0.1184 0.0058 0 0 10 0
0.6080 0.1177 0.0060 0 0 10 0
0.6020 0.1174 0.0045 0 0 10 0
0.6240 0.1171 0.0045 0 0 10 0
0.6240 0.1171 0.0045 0 0 10 0
0.5960 0.1171 0.0073 0 0 10 0
0.5920 0.1166 0.0070 0 0 10 0
0.5880 0.1157 0.0060 0 0 10 0
0.6260 0.1146 0.0063 0 0 10 0
0.6260 0.1146 0.0063 0 0 10 0
0.6280 0.1140 0.0046 0 0 10 0
0.6140 0.1134 0.0050 0 0 10 0
0.6200 0.1132 0.0050 0 0 10 0
0.5960 0.1131 0.0058 0 0 10 0
0.6060 0.1129 0.0060 0 0 10 0
0.6140 0.1127 0.0055 0 0 10 0
0.6200 0.1124 0.0068 0 0 10 0
0.6140 0.1122 0.0064 0 0 10 0
0.6240 0.1115 0.0056 0 0 10 0
0.6240 0.1115 0.0056 0 0 10 0
0.6060 0.1106 0.0049 0 0 10 0
0.6280 0.1099 0.0053 0 0 10 0
0.6280 0.1089 0.0053 0 0 10 0
0.6180 0.1084 0.0047 0 0 10 0
0.6180 0.1084 0.0047 0 0 10 0
0.6140 0.1080 0.0053 0 0 10 0
0.6140 0.1073 0.0047 0 0 10 0
0.6200 0.1066 0.0050 0 0 10 0
0.6140 0.1051 0.0049 0 0 10 0
0.6140 0.1051 0.0049 0 0 10 0
0.6060 0.1048 0.0058 0 0 10 0
0.6200 0.1047 0.0059 0 0 10 0
0.6180 0.1046 0.0049 0 0 10 0
0.6340 0.1046 0.0047 0 0 10 0
0.6260 0.1043 0.0057 0 0 10 0
0.6260 0.1043 0.0057 0 0 10 0
0.6080 0.1030 0.0041 0 0 10 0
0.6300 0.1024 0.0040 0 0 10 0
0.6300 0.1023 0.0042 0 0 10 0
0.6020 0.1023 0.0042 0 0 10 0
0.6020 0.1018 0.0042 0 0 10 0
0.6080 0.1018 0.0042 0 0 10 0
0.6040 0.1014 0.0041 0 0 10 0
0.6140 0.1010 0.0057 0 0 10 0
0.6100 0.1007 0.0065 0 0 10 0
0.6300 0.1003 0.0067 0 0 10 0
0.6080 0.1000 0.0057 0 0 10 0
0.6300 0.0995 0.0055 0 0 10 0
0.6280 0.0988 0.0030 0 0 10 0
0.6120 0.0980 0.0027 0 0 10 0
0.6280 0.0979 0.0017 0 0 10 0
0.6280 0.0979 0.0017 0 0 10 0
0.6240 0.0979 0.0014 0 0 10 0
0.6260 0.0980 -0.0010 0 0 10 0
0.6120 0.0985 -0.0012 0 0 10 0
0.6060 0.0983 -0.0029 0 0 10 0
0.6320 0.0974 -0.0030 0 0 10 0
0.6320 0.0974 -0.0030 0 0 10 0
0.6180 0.0968 -0.0026 0 0 10 0
0.6420 0.0965 -0.0022 0 0 10 0
0.6500 0.0964 -0.0015 0 0 10 0
0.6280 0.0964 -0.0034 0 0 10 0
0.6280 0.0964 -0.0034 0 0 10 0
0.6300 0.0959 -0.0033 0 0 10 0
0.6480 0.0952 -0.0020 0 0 10 0
0.6360 0.0943 -0.0017 0 0 10 0
0.6200 0.0937 -0.0004 0 0 10 0
0.6120 0.0930 -0.0004 0 0 10 0
0.6120 0.0930 -0.0004 0 0 10 0
0.6140 0.0929 0.0011 0 0 10 0
0.6440 0.0927 0.0012 0 0 10 0
0.6320 0.0922 0.0017 0 0 10 0
0.6200 0.0918 0.0022 0 0 10 0
0.6320 0.0915 0.0032 0 0 10 0
0.6200 0.0907 0.0036 0 0 10 0
0.6060 0.0902 0.0031 0 0 10 0
0.6060 0.0902 0.0031 0 0 10 0
0.6100 0.0897 0.0033 0 0 10 0
0.6020 0.0889 0.0039 0 0 10 0
0.6240 0.0881 0.0016 0 0 10 0
0.6240 0.0875 0.0014 0 0 10 0
0.6340 0.0873 0.0030 0 0 10 0
0.6340 0.0868 0.0034 0 0 10 0
0.6340 0.0868 0.0034 0 0 10 0
0.6200 0.0865 0.0031 0 0 10 0
0.6320 0.0861 0.0033 0 0 10 0
0.6240 0.0857 0.0033 0 0 10 0
0.6320 0.0850 0.0041 0 0 10 0
0.6200 0.0849 0.0041 0 0 10 0
0.6100 0.0847 0.0049 0 0 10 0
0.6280 0.0844 0.0041 0 0 10 0
0.6280 0.0844 0.0041 0 0 10 0
0.6380 0.0837 0.0040 0 0 10 0
0.6160 0.0822 0.0044 0 0 10 0
0.6320 0.0820 0.0037 0 0 10 0
0.6320 0.0820 0.0037 0 0 10 0
0.6380 0.0823 0.0043 0 0 10 0
0.6380 0.0823 0.0043 0 0 10 0
0.6200 0.0820 0.0041 0 0 10 0
0.6160 0.0812 0.0045 0 0 10 0
0.6460 0.0799 0.0052 0 0 10 0
0.6460 0.0799 0.0052 0 0 10 0
0.6040 0.0794 0.0060 0 0 10 0
0.6040 0.0794 0.0060 0 0 10 0
0.6280 0.0792 0.0056 0 0 10 0
0.6360 0.0787 0.0068 0 0 10 0
0.6340 0.0781 0.0054 0 0 10 0
0.6320 0.0778 0.0052 0 0 10 0
0.6320 0.0778 0.0052 0 0 10 0
0.6320 0.0774 0.0057 0 0 10 0
0.6300 0.0771 0.0058 0 0 10 0
0.6440 0.0771 0.0052 0 0 10 0
0.6360 0.0764 0.0045 0 0 10 0
0.6380 0.0758 0.0046 0 0 10 0
0.6360 0.0751 0.0047 0 0 10 0
0.6360 0.0751 0.0047 0 0 10 0
0.6240 0.0736 0.0023 0 0 10 0
0.6160 0.0732 0.0021 0 0 10 0
0.6280 0.0732 0.0029 0 0 10 0
0.6280 0.0732 0.0029 0 0 10 0
0.6500 0.0731 0.0027 0 0 10 0
0.6360 0.0727 0.0021 0 0 10 0
0.6360 0.0727 0.0021 0 0 10 0
0.6200 0.0718 0.0016 0 0 10 0
0.6280 0.0712 0.0010 0 0 10 0
0.6280 0.0712 0.0010 0 0 10 0
0.6440 0.0701 0.0020 0 0 10 0
0.6340 0.0696 0.0015 0 0 10 0
0.6340 0.0696 0.0015 0 0 10 0
0.6140 0.0690 0.0012 0 0 10 0
0.6020 0.0689 0.0015 0 0 10 0
0.6200 0.0686 0.0017 0 0 10 0
0.6200 0.0686 0.0017 0 0 10 0
0.6240 0.0690 0.0024 0 0 10 0
0.6240 0.0690 0.0024 0 0 10 0
0.6320 0.0689 0.0021 0 0 10 0
0.6220 0.0685 0.0020 0 0 10 0
0.6040 0.0678 0.0022 0 0 10 0
0.6040 0.0678 0.0022 0 0 10 0
0.6180 0.0672 0.0018 0 0 10 0
0.6180 0.0672 0.0018 0 0 10 0
0.6500 0.0668 0.0020 0 0 10 0
0.6240 0.0663 0.0042 0 0 10 0
0.6240 0.0663 0.0042 0 0 10 0
0.6440 0.0651 0.0036 0 0 10 0
0.6260 0.0645 0.0037 0 0 10 0
0.6340 0.0640 0.0031 0 0 10 0
0.6160 0.0630 0.0036 0 0 10 0
0.6160 0.0630 0.0036 0 0 10 0
0.6360 0.0623 0.0019 0 0 10 0
0.6360 0.0623 0.0019 0 0 10 0
0.6300 0.0617 0.0021 0 0 10 0
0.6340 0.0609 0.0021 0 0 10 0
0.6340 0.0609 0.0021 0 0 10 0
0.6160 0.0600 0.0024 0 0 10 0
0.6320 0.0591 0.0028 0 0 10 0
0.6360 0.0590 0.0003 0 0 10 0
0.6380 0.0589 -0.0001 0 0 10 0
0.6380 0.0589 -0.0001 0 0 10 0
0.6300 0.0590 0.0010 0 0 10 0
0.6300 0.0590 0.0010 0 0 10 0
0.6220 0.0587 0.0018 0 0 10 0
0.6440 0.0586 0.0021 0 0 10 0
0.6220 0.0586 0.0024 0 0 10 0
0.6220 0.0586 0.0024 0 0 10 0
0.6420 0.0582 -0.0002 0 0 10 0
0.6440 0.0579 -0.0004 0 0 10 0
0.6420 0.0579 -0.0004 0 0 10 0
0.6560 0.0575 -0.0002 0 0 10 0
0.6420 0.0567 -0.0031 0 0 10 0
0.6420 0.0565 -0.0027 0 0 10 0
0.6420 0.0565 -0.0027 0 0 10 0
0.6440 0.0561 -0.0032 0 0 10 0
0.6480 0.0557 -0.0031 0 0 10 0
0.6500 0.0552 -0.0026 0 0 10 0
0.6500 0.0552 -0.0026 0 0 10 0
0.6240 0.0547 -0.0028 0 0 10 0
0.6500 0.0540 -0.0029 0 0 10 0
0.6400 0.0533 -0.0040 0 0 10 0
0.6400 0.0533 -0.0040 0 0 10 0
0.6660 0.0525 -0.0018 0 0 10 0
0.6400 0.0521 -0.0013 0 0 10 0
0.6520 0.0514 -0.0019 0 0 10 0
0.6520 0.0501 -0.0013 0 0 10 0
0.6520 0.0501 -0.0013 0 0 10 0
0.6560 0.0486 0.0006 0 0 10 0
0.6480 0.0480 0.0007 0 0 10 0
0.6600 0.0478 -0.0027 0 0 10 0
0.6640 0.0476 -0.0027 0 0 10 0
0.6640 0.0478 -0.0031 0 0 10 0
0.6560 0.0478 -0.0031 0 0 10 0
0.6540 0.0476 -0.0029 0 0 10 0
0.6560 0.0471 -0.0045 0 0 10 0
0.6600 0.0462 -0.0045 0 0 10 0
0.6500 0.0455 -0.0027 0 0 10 0
0.6500 0.0454 -0.0025 0 0 10 0
0.6680 0.0454 -0.0016 0 0 10 0
0.6520 0.0452 -0.0014 0 0 10 0
0.6600 0.0446 0.0002 0 0 10 0
0.6580 0.0441 0.0004 0 0 10 0
0.6580 0.0441 0.0004 0 0 10 0
0.6660 0.0431 -0.0024 0 0 10 0
0.6740 0.0421 -0.0007 0 0 10 0
0.6760 0.0413 -0.0004 0 0 10 0
0.6680 0.0413 -0.0012 0 0 10 0
0.6760 0.0413 -0.0011 0 0 10 0
0.6760 0.0413 -0.0011 0 0 10 0
0.6640 0.0414 -0.0010 0 0 10 0
0.6600 0.0412 -0.0013 0 0 10 0
0.6460 0.0407 -0.0022 0 0 10 0
0.6520 0.0403 -0.0023 0 0 0 0
0.6780 0.0390 -0.0013 0 0 0 10
0.6560 0.0377 -0.0016 0 0 0 10
0.6600 0.0372 -0.0020 0 0 0 10
0.6820 0.0371 -0.0015 0 0 0 0
0.6740 0.0365 0.0001 0 0 10 0
0.6900 0.0356 0.0012 0 0 10 0
0.6700 0.0362 0.0013 0 0 10 0
0.6620 0.0362 0.0013 0 0 10 0
0.6620 0.0362 0.0013 0 0 10 0
0.6860 0.0365 -0.0002 0 0 10 0
0.6900 0.0365 0.0001 0 0 10 0
0.6740 0.0369 0.0006 0 0 10 0
0.6940 0.0373 -0.0011 0 0 10 0
0.6940 0.0373 -0.0011 0 0 10 0
0.6720 0.0370 -0.0008 0 0 10 0
0.6700 0.0362 0.0001 0 0 10 0
0.6640 0.0357 0.0005 0 0 10 0
0.6800 0.0354 0.0002 0 0 10 0
0.6800 0.0354 0.0002 0 0 10 0
0.6700 0.0350 0.0008 0 0 10 0
0.6840 0.0352 0.0014 0 0 10 0
0.6840 0.0352 0.0014 0 0 10 0
0.6960 0.0346 0.0020 0 0 10 0
0.6840 0.0343 0.0021 0 0 10 0
0.6840 0.0343 0.0021 0 0 10 0
0.6760 0.0332 0.0022 0 0 10 0
0.6980 0.0333 0.0028 0 0 10 0
0.6980 0.0333 0.0028 0 0 10 0
0.6980 0.0336 0.0019 0 0 10 0
0.6940 0.0334 0.0009 0 0 10 0
0.6580 0.0334 0.0011 0 0 10 0
0.6580 0.0334 0.0011 0 0 10 0
0.6640 0.0314 0.0016 0 0 10 0
0.6820 0.0314 0.0016 0 0 10 0
0.7040 0.0306 0.0014 0 0 10 0
0.6800 0.0299 -0.0012 0 0 10 0
0.6740 0.0297 -0.0010 0 0 10 0
0.6880 0.0300 -0.0016 0 0 10 0
0.6880 0.0300 -0.0016 0 0 10 0
0.6640 0.0297 -0.0014 0 0 10 0
0.6660 0.0292 0.0002 0 0 10 0
0.6780 0.0288 0.0007 0 0 10 0
0.6780 0.0283 -0.0003 0 0 10 0
0.6960 0.0278 -0.0005 0 0 10 0
0.6960 0.0278 -0.0005 0 0 10 0
0.6840 0.0273 0.0013 0 0 10 0
0.6720 0.0269 -0.0007 0 0 10 0
0.6540 0.0268 -0.0011 0 0 10 0
0.6660 0.0264 -0.0001 0 0 10 0
0.6660 0.0264 -0.0001 0 0 10 0
0.6640 0.0257 -0.0000 0 0 10 0
0.6620 0.0252 -0.0011 0 0 10 0
0.6460 0.0253 -0.0013 0 0 10 0
0.6460 0.0253 -0.0013 0 0 10 0
0.6780 0.0250 -0.0025 0 0 10 0
0.6780 0.0250 -0.0025 0 0 10 0
0.6700 0.0242 -0.0060 0 0 10 0
0.6760 0.0231 -0.0074 0 0 10 0
0.6640 0.0226 -0.0048 0 0 10 0
0.6640 0.0222 -0.0049 0 0 10 0
0.6640 0.0222 -0.0049 0 0 10 0
0.6820 0.0215 -0.0072 0 0 10 0
0.6720 0.0212 -0.0056 0 0 10 0
0.6720 0.0212 -0.0056 0 0 10 0
0.6680 0.0208 -0.0054 0 0 10 0
0.6920 0.0204 -0.0059 0 0 10 0
0.6980 0.0197 -0.0039 0 0 10 0
0.6700 0.0192 -0.0044 0 0 10 0
0.6880 0.0190 -0.0036 0 0 10 0
0.6880 0.0190 -0.0036 0 0 10 0
0.6740 0.0188 -0.0034 0 0 10 0
0.6820 0.0185 -0.0034 0 0 10 0
0.6860 0.0176 -0.0021 0 0 10 0
0.6860 0.0176 -0.0021 0 0 10 0
0.7060 0.0171 -0.0015 0 0 10 0
0.7060 0.0171 -0.0015 0 0 10 0
0.6960 0.0163 -0.0024 0 0 10 0
0.6760 0.0154 -0.0046 0 0 10 0
0.6880 0.0148 -0.0042 0 0 10 0
0.6880 0.0147 -0.0037 0 0 10 0
0.7040 0.0147 -0.0037 0 0 10 0
0.6960 0.0146 -0.0051 0 0 10 0
0.6860 0.0143 -0.0050 0 0 10 0
0.7080 0.0141 -0.0047 0 0 10 0
0.6860 0.0132 -0.0063 0 0 10 0
0.6860 0.0132 -0.0063 0 0 10 0
0.6920 0.0121 -0.0065 0 0 10 0
0.7020 0.0118 -0.0045 0 0 10 0
0.6940 0.0112 -0.0042 0 0 10 0
0.7080 0.0110 -0.0044 0 0 10 0
0.6920 0.0110 -0.0043 0 0 10 0
0.6920 0.0106 -0.0024 0 0 10 0
0.6840 0.0106 -0.0024 0 0 10 0
0.6960 0.0102 -0.0021 0 0 10 0
0.6940 0.0083 -0.0024 0 0 10 0
0.6940 0.0083 -0.0024 0 0 10 0
0.7040 0.0077 0.0003 0 0 10 0
0.7000 0.0074 0.0017 0 0 10 0
0.6940 0.0076 0.0016 0 0 10 0
0.7140 0.0073 0.0031 0 0 10 0
0.6980 0.0070 0.0030 0 0 10 0
0.6940 0.0065 0.0015 0 0 10 0
0.6940 0.0065 0.0015 0 0 10 0
0.7000 0.0061 0.0013 0 0 10 0
0.6980 0.0055 0.0015 0 0 10 0
0.6980 0.0051 0.0014 0 0 10 0
