0.5440 0.2044 0.0116 0 0 10 0
0.5640 0.2043 0.0104 0 0 10 0
0.5520 0.2040 0.0100 0 0 10 0
0.5500 0.2040 0.0084 0 0 10 0
0.5480 0.2036 0.0085 0 0 10 0
0.5480 0.2036 0.0085 0 0 10 0
0.5540 0.2042 0.0090 0 0 10 0
0.5480 0.2047 0.0093 0 0 10 0
0.5380 0.2049 0.0118 0 0 10 0
0.5400 0.2050 0.0124 0 0 10 0
0.5340 0.2042 0.0117 0 0 10 0
0.5340 0.2042 0.0117 0 0 10 0
0.5280 0.2039 0.0117 0 0 10 0
0.5340 0.2038 0.0123 0 0 10 0
0.5420 0.2035 0.0127 0 0 10 0
0.5580 0.2030 0.0106 0 0 10 0
0.5580 0.2029 0.0112 0 0 10 0
0.5460 0.2029 0.0112 0 0 10 0
0.5620 0.2026 0.0122 0 0 10 0
0.5380 0.2021 0.0132 0 0 10 0
0.5460 0.2019 0.0117 0 0 10 0
0.5500 0.2016 0.0121 0 0 10 0
0.5500 0.2015 0.0123 0 0 10 0
0.5380 0.2015 0.0123 0 0 10 0
0.5720 0.2015 0.0125 0 0 10 0
0.5760 0.2016 0.0110 0 0 10 0
0.5760 0.2014 0.0125 0 0 10 0
0.5760 0.2014 0.0125 0 0 10 0
0.5320 0.2008 0.0127 0 0 10 0
0.5680 0.2005 0.0137 0 0 10 0
0.5320 0.1995 0.0139 0 0 10 0
0.5460 0.1988 0.0139 0 0 10 0
0.5480 0.1981 0.0118 0 0 10 0
0.5480 0.1981 0.0118 0 0 10 0
0.5480 0.1972 0.0119 0 0 10 0
0.5560 0.1968 0.0135 0 0 10 0
0.5320 0.1963 0.0135 0 0 10 0
0.5320 0.1963 0.0135 0 0 10 0
0.5520 0.1954 0.0107 0 0 10 0
0.5460 0.1955 0.0117 0 0 10 0
0.5560 0.1951 0.0114 0 0 10 0
0.5660 0.1946 0.0125 0 0 10 0
0.5720 0.1942 0.0126 0 0 10 0
0.5680 0.1938 0.0115 0 0 10 0
0.5680 0.1938 0.0115 0 0 10 0
0.5560 0.1929 0.0108 0 0 10 0
0.5720 0.1923 0.0099 0 0 10 0
0.5800 0.1915 0.0095 0 0 10 0
0.5580 0.1902 0.0101 0 0 10 0
0.5520 0.1894 0.0101 0 0 10 0
0.5480 0.1890 0.0105 0 0 10 0
0.5540 0.1893 0.0083 0 0 10 0
0.5680 0.1888 0.0074 0 0 10 0
0.5780 0.1882 0.0075 0 0 10 0
0.5680 0.1874 0.0085 0 0 10 0
0.5500 0.1865 0.0086 0 0 10 0
0.5600 0.1858 0.0089 0 0 10 0
0.5600 0.1858 0.0089 0 0 10 0
0.5600 0.1853 0.0078 0 0 10 0
0.5500 0.1850 0.0075 0 0 10 0
0.5520 0.1850 0.0087 0 0 10 0
0.5700 0.1838 0.0143 0 0 10 0
0.5700 0.1829 0.0145 0 0 10 0
0.5700 0.1829 0.0145 0 0 10 0
0.5840 0.1821 0.0121 0 0 10 0
0.5640 0.1827 0.0155 0 0 10 0
0.5780 0.1824 0.0157 0 0 10 0
0.5580 0.1821 0.0149 0 0 10 0
0.5580 0.1821 0.0149 0 0 10 0
0.5640 0.1822 0.0150 0 0 10 0
0.5620 0.1817 0.0100 0 0 10 0
0.5720 0.1814 0.0094 0 0 10 0
0.5800 0.1810 0.0093 0 0 10 0
0.5660 0.1800 0.0085 0 0 10 0
0.5660 0.1800 0.0085 0 0 10 0
0.5560 0.1797 0.0085 0 0 10 0
0.5720 0.1795 0.0078 0 0 10 0
0.5460 0.1791 0.0066 0 0 10 0
0.5580 0.1786 0.0069 0 0 10 0
0.5620 0.1785 0.0078 0 0 10 0
0.5440 0.1785 0.0046 0 0 10 0
0.5700 0.1779 0.0030 0 0 10 0
0.5580 0.1766 0.0053 0 0 10 0
0.5780 0.1758 0.0055 0 0 10 0
0.5780 0.1758 0.0055 0 0 10 0
0.5640 0.1747 0.0040 0 0 10 0
0.5720 0.1742 0.0047 0 0 10 0
0.5580 0.1743 0.0077 0 0 10 0
0.5720 0.1745 0.0079 0 0 10 0
0.5720 0.1745 0.0079 0 0 10 0
0.5920 0.1748 0.0062 0 0 10 0
0.5920 0.1748 0.0062 0 0 10 0
0.5680 0.1746 0.0061 0 0 10 0
0.5420 0.1740 0.0062 0 0 10 0
0.5400 0.1737 0.0055 0 0 10 0
0.5760 0.1728 0.0062 0 0 10 0
0.5760 0.1728 0.0062 0 0 10 0
0.5780 0.1722 0.0058 0 0 10 0
0.5800 0.1719 0.0063 0 0 10 0
0.5740 0.1715 0.0049 0 0 10 0
0.5900 0.1717 0.0057 0 0 10 0
0.5700 0.1717 0.0058 0 0 10 0
0.5820 0.1718 0.0050 0 0 10 0
0.5640 0.1713 0.0051 0 0 10 0
0.5760 0.1709 0.0067 0 0 10 0
0.5760 0.1709 0.0067 0 0 10 0
0.5540 0.1702 0.0066 0 0 10 0
0.5860 0.1701 0.0062 0 0 10 0
0.5860 0.1701 0.0062 0 0 10 0
0.5680 0.1698 0.0068 0 0 10 0
0.5660 0.1694 0.0060 0 0 10 0
0.5660 0.1691 0.0058 0 0 10 0
0.5560 0.1691 0.0058 0 0 10 0
0.5580 0.1682 0.0054 0 0 10 0
0.5580 0.1682 0.0054 0 0 10 0
0.5680 0.1673 0.0026 0 0 10 0
0.5740 0.1671 0.0036 0 0 10 0
0.5920 0.1671 0.0038 0 0 10 0
0.5760 0.1675 0.0045 0 0 10 0
0.6080 0.1672 0.0051 0 0 10 0
0.5820 0.1667 0.0064 0 0 10 0
0.5820 0.1654 0.0060 0 0 10 0
0.5700 0.1654 0.0060 0 0 10 0
0.5460 0.1640 0.0061 0 0 10 0
0.5460 0.1640 0.0061 0 0 10 0
0.5700 0.1639 0.0057 0 0 10 0
0.5800 0.1640 0.0058 0 0 10 0
0.5940 0.1644 0.0055 0 0 10 0
0.5940 0.1644 0.0055 0 0 10 0
0.5780 0.1641 0.0069 0 0 10 0
0.5700 0.1636 0.0072 0 0 10 0
0.5800 0.1633 0.0077 0 0 10 0
0.5840 0.1621 0.0072 0 0 10 0
0.5900 0.1611 0.0071 0 0 10 0
0.5900 0.1611 0.0071 0 0 10 0
0.5740 0.1603 0.0067 0 0 10 0
0.5960 0.1600 0.0052 0 0 10 0
0.5760 0.1600 0.0023 0 0 10 0
0.5760 0.1599 0.0050 0 0 10 0
0.5820 0.1599 0.0050 0 0 10 0
0.5780 0.1596 0.0065 0 0 10 0
0.5760 0.1590 0.0056 0 0 10 0
0.5660 0.1587 0.0061 0 0 10 0
0.5780 0.1581 0.0084 0 0 10 0
0.5600 0.1574 0.0088 0 0 10 0
0.5600 0.1574 0.0088 0 0 10 0
0.5700 0.1571 0.0092 0 0 10 0
0.5620 0.1567 0.0106 0 0 10 0
0.5580 0.1565 0.0108 0 0 10 0
0.5840 0.1565 0.0128 0 0 10 0
0.5840 0.1565 0.0128 0 0 10 0
0.5820 0.1565 0.0133 0 0 10 0
0.5760 0.1561 0.0134 0 0 10 0
0.5640 0.1551 0.0140 0 0 10 0
0.5560 0.1543 0.0131 0 0 10 0
0.5660 0.1536 0.0134 0 0 10 0
0.5660 0.1536 0.0134 0 0 10 0
0.5620 0.1529 0.0148 0 0 10 0
0.5580 0.1524 0.0144 0 0 10 0
0.5660 0.1521 0.0129 0 0 10 0
0.5640 0.1513 0.0128 0 0 10 0
0.5560 0.1505 0.0152 0 0 10 0
0.5620 0.1497 0.0150 0 0 10 0
0.5620 0.1497 0.0150 0 0 10 0
0.5680 0.1491 0.0177 0 0 10 0
0.5740 0.1491 0.0188 0 0 10 0
0.5640 0.1488 0.0175 0 0 10 0
0.5580 0.1489 0.0191 0 0 10 0
0.5600 0.1486 0.0209 0 0 10 0
0.5640 0.1488 0.0214 0 0 10 0
0.5640 0.1488 0.0214 0 0 10 0
0.5600 0.1488 0.0206 0 0 10 0
0.5520 0.1486 0.0206 0 0 10 0
0.5620 0.1475 0.0216 0 0 10 0
0.5780 0.1468 0.0215 0 0 10 0
0.5780 0.1468 0.0215 0 0 10 0
0.5480 0.1461 0.0223 0 0 10 0
0.5460 0.1459 0.0224 0 0 10 0
0.5740 0.1457 0.0224 0 0 10 0
0.5740 0.1452 0.0237 0 0 10 0
0.5780 0.1446 0.0236 0 0 10 0
0.5780 0.1446 0.0236 0 0 10 0
0.5660 0.1439 0.0271 0 0 10 0
0.5680 0.1432 0.0268 0 0 10 0
0.5640 0.1421 0.0279 0 0 10 0
0.5540 0.1418 0.0275 0 0 10 0
0.5680 0.1415 0.0296 0 0 10 0
0.5820 0.1413 0.0284 0 0 10 0
0.5640 0.1411 0.0280 0 0 10 0
0.5640 0.1411 0.0280 0 0 10 0
0.5500 0.1407 0.0274 0 0 10 0
0.5580 0.1399 0.0287 0 0 10 0
0.5800 0.1394 0.0279 0 0 10 0
0.5800 0.1394 0.0279 0 0 10 0
0.5840 0.1391 0.0269 0 0 10 0
0.5840 0.1391 0.0269 0 0 10 0
0.5600 0.1390 0.0277 0 0 10 0
0.5720 0.1383 0.0258 0 0 10 0
0.5840 0.1374 0.0274 0 0 10 0
0.5840 0.1374 0.0274 0 0 10 0
0.5760 0.1368 0.0281 0 0 10 0
0.5780 0.1365 0.0277 0 0 10 0
0.5820 0.1359 0.0277 0 0 10 0
0.5960 0.1348 0.0266 0 0 10 0
0.5960 0.1345 0.0246 0 0 10 0
0.5800 0.1345 0.0246 0 0 10 0
0.6000 0.1337 0.0239 0 0 10 0
0.5780 0.1333 0.0243 0 0 10 0
0.5760 0.1331 0.0239 0 0 10 0
0.5760 0.1331 0.0239 0 0 10 0
0.5920 0.1328 0.0261 0 0 10 0
0.5920 0.1328 0.0261 0 0 10 0
0.5900 0.1325 0.0262 0 0 10 0
0.5940 0.1316 0.0267 0 0 10 0
0.6020 0.1309 0.0269 0 0 10 0
0.6020 0.1308 0.0275 0 0 10 0
0.6020 0.1308 0.0275 0 0 10 0
0.5920 0.1306 0.0268 0 0 10 0
0.5780 0.1303 0.0271 0 0 10 0
0.5940 0.1303 0.0271 0 0 10 0
0.5940 0.1303 0.0271 0 0 10 0
0.5740 0.1297 0.0276 0 0 10 0
0.5740 0.1295 0.0276 0 0 10 0
0.5720 0.1295 0.0276 0 0 10 0
0.5760 0.1285 0.0274 0 0 10 0
0.5760 0.1280 0.0258 0 0 10 0
0.6080 0.1275 0.0248 0 0 10 0
0.6080 0.1275 0.0248 0 0 10 0
0.5740 0.1269 0.0252 0 0 10 0
0.5680 0.1270 0.0258 0 0 10 0
0.5920 0.1270 0.0252 0 0 10 0
0.5840 0.1264 0.0251 0 0 10 0
0.5840 0.1264 0.0251 0 0 10 0
0.6060 0.1257 0.0253 0 0 10 0
0.6000 0.1237 0.0227 0 0 10 0
0.6040 0.1237 0.0233 0 0 10 0
0.6040 0.1237 0.0233 0 0 10 0
0.5980 0.1237 0.0231 0 0 10 0
0.5820 0.1235 0.0236 0 0 10 0
0.5960 0.1231 0.0226 0 0 10 0
0.5960 0.1231 0.0226 0 0 10 0
0.6020 0.1212 0.0227 0 0 10 0
0.6020 0.1212 0.0227 0 0 10 0
0.6000 0.1207 0.0221 0 0 10 0
0.5940 0.1202 0.0217 0 0 10 0
0.5860 0.1198 0.0212 0 0 10 0
0.6200 0.1190 0.0207 0 0 10 0
0.6200 0.1190 0.0207 0 0 10 0
0.6000 0.1183 0.0187 0 0 10 0
0.6000 0.1183 0.0187 0 0 10 0
0.5960 0.1180 0.0185 0 0 10 0
0.6180 0.1180 0.0182 0 0 10 0
0.5900 0.1182 0.0172 0 0 10 0
0.5980 0.1180 0.0171 0 0 10 0
0.5960 0.1174 0.0184 0 0 10 0
0.5960 0.1174 0.0184 0 0 10 0
0.5880 0.1169 0.0177 0 0 10 0
0.6020 0.1164 0.0187 0 0 10 0
0.5720 0.1160 0.0193 0 0 10 0
0.5720 0.1160 0.0193 0 0 10 0
0.6080 0.1156 0.0190 0 0 10 0
0.6140 0.1151 0.0199 0 0 10 0
0.6140 0.1151 0.0199 0 0 10 0
0.6120 0.1139 0.0200 0 0 10 0
0.6040 0.1131 0.0193 0 0 10 0
0.6060 0.1129 0.0206 0 0 10 0
0.5880 0.1125 0.0207 0 0 10 0
0.5880 0.1125 0.0207 0 0 10 0
0.6060 0.1124 0.0178 0 0 10 0
0.6060 0.1124 0.0178 0 0 10 0
0.5980 0.1114 0.0195 0 0 10 0
0.5960 0.1106 0.0188 0 0 10 0
0.5980 0.1099 0.0196 0 0 10 0
0.5980 0.1095 0.0191 0 0 10 0
0.6120 0.1095 0.0191 0 0 10 0
0.5860 0.1091 0.0172 0 0 10 0
0.6020 0.1090 0.0164 0 0 10 0
0.6020 0.1088 0.0163 0 0 10 0
0.6020 0.1088 0.0134 0 0 10 0
0.6020 0.1088 0.0134 0 0 10 0
0.5840 0.1079 0.0130 0 0 10 0
0.6000 0.1062 0.0120 0 0 10 0
0.6000 0.1062 0.0120 0 0 10 0
0.6140 0.1061 0.0139 0 0 10 0
0.6020 0.1063 0.0134 0 0 10 0
0.6080 0.1066 0.0129 0 0 10 0
0.6080 0.1066 0.0129 0 0 10 0
0.5880 0.1063 0.0138 0 0 10 0
0.6000 0.1054 0.0135 0 0 10 0
0.5980 0.1051 0.0102 0 0 10 0
0.5960 0.1044 0.0110 0 0 10 0
0.5960 0.1044 0.0110 0 0 10 0
0.5960 0.1034 0.0126 0 0 10 0
0.5960 0.1034 0.0126 0 0 10 0
0.6080 0.1028 0.0133 0 0 10 0
0.5900 0.1021 0.0129 0 0 10 0
0.5940 0.1016 0.0140 0 0 10 0
0.5940 0.1016 0.0140 0 0 10 0
0.5980 0.1009 0.0138 0 0 10 0
0.6200 0.1005 0.0133 0 0 10 0
0.6100 0.1002 0.0128 0 0 10 0
0.6060 0.1000 0.0155 0 0 10 0
0.6060 0.1000 0.0155 0 0 10 0
0.5980 0.0992 0.0165 0 0 10 0
0.5960 0.0988 0.0151 0 0 10 0
0.5920 0.0987 0.0165 0 0 10 0
0.6100 0.0987 0.0163 0 0 10 0
0.6100 0.0987 0.0163 0 0 10 0
0.6300 0.0981 0.0161 0 0 10 0
0.6020 0.0977 0.0155 0 0 10 0
0.6060 0.0973 0.0146 0 0 10 0
0.6060 0.0973 0.0146 0 0 10 0
0.6180 0.0969 0.0148 0 0 10 0
0.6080 0.0962 0.0140 0 0 10 0
0.6080 0.0953 0.0165 0 0 10 0
0.5940 0.0953 0.0165 0 0 10 0
0.6020 0.0948 0.0162 0 0 10 0
0.5840 0.0949 0.0174 0 0 10 0
0.5940 0.0950 0.0167 0 0 10 0
0.6000 0.0944 0.0181 0 0 10 0
0.6040 0.0936 0.0178 0 0 10 0
0.6040 0.0929 0.0189 0 0 10 0
0.6040 0.0929 0.0189 0 0 10 0
0.6180 0.0925 0.0194 0 0 10 0
0.5780 0.0925 0.0200 0 0 10 0
0.5880 0.0922 0.0193 0 0 10 0
0.5980 0.0921 0.0199 0 0 10 0
0.5980 0.0921 0.0199 0 0 10 0
0.5960 0.0919 0.0209 0 0 10 0
0.6140 0.0910 0.0211 0 0 10 0
0.6180 0.0902 0.0206 0 0 10 0
0.6180 0.0902 0.0206 0 0 10 0
0.5920 0.0882 0.0212 0 0 10 0
0.5920 0.0882 0.0212 0 0 10 0
0.5940 0.0869 0.0205 0 0 10 0
0.5880 0.0864 0.0223 0 0 10 0
0.6200 0.0861 0.0217 0 0 10 0
0.5940 0.0860 0.0218 0 0 10 0
0.5940 0.0860 0.0218 0 0 10 0
0.6000 0.0856 0.0189 0 0 10 0
0.6160 0.0854 0.0178 0 0 10 0
0.6220 0.0848 0.0154 0 0 10 0
0.6220 0.0848 0.0154 0 0 10 0
0.6060 0.0842 0.0156 0 0 10 0
0.6240 0.0842 0.0156 0 0 10 0
0.6300 0.0844 0.0154 0 0 10 0
0.6040 0.0842 0.0150 0 0 10 0
0.6040 0.0842 0.0150 0 0 10 0
0.6220 0.0818 0.0173 0 0 10 0
0.6060 0.0810 0.0183 0 0 10 0
0.6160 0.0805 0.0197 0 0 10 0
0.6160 0.0805 0.0197 0 0 10 0
0.6300 0.0805 0.0208 0 0 10 0
0.6380 0.0805 0.0188 0 0 10 0
0.6360 0.0802 0.0186 0 0 10 0
0.6340 0.0800 0.0187 0 0 10 0
0.6280 0.0794 0.0197 0 0 10 0
0.6240 0.0790 0.0168 0 0 10 0
0.6240 0.0790 0.0168 0 0 10 0
0.6240 0.0791 0.0170 0 0 10 0
0.6360 0.0785 0.0176 0 0 10 0
0.6400 0.0778 0.0185 0 0 10 0
0.6320 0.0774 0.0183 0 0 10 0
0.6320 0.0774 0.0183 0 0 10 0
0.6180 0.0768 0.0185 0 0 10 0
0.6140 0.0763 0.0182 0 0 10 0
0.6140 0.0763 0.0182 0 0 10 0
0.6220 0.0756 0.0180 0 0 10 0
0.6200 0.0750 0.0178 0 0 10 0
0.6280 0.0744 0.0172 0 0 10 0
0.6280 0.0744 0.0172 0 0 10 0
0.6220 0.0738 0.0143 0 0 10 0
0.6240 0.0737 0.0157 0 0 10 0
0.6300 0.0734 0.0150 0 0 10 0
0.6260 0.0730 0.0115 0 0 10 0
0.6360 0.0727 0.0111 0 0 10 0
0.6240 0.0723 0.0113 0 0 10 0
0.6200 0.0715 0.0118 0 0 10 0
0.6220 0.0709 0.0118 0 0 10 0
0.6160 0.0705 0.0130 0 0 10 0
0.6200 0.0699 0.0111 0 0 10 0
0.6200 0.0697 0.0121 0 0 10 0
0.6320 0.0697 0.0121 0 0 10 0
0.6220 0.0690 0.0127 0 0 10 0
0.6400 0.0689 0.0148 0 0 10 0
0.6120 0.0683 0.0153 0 0 10 0
0.6120 0.0683 0.0153 0 0 10 0
0.6180 0.0681 0.0141 0 0 10 0
0.6160 0.0678 0.0146 0 0 10 0
0.6180 0.0674 0.0169 0 0 10 0
0.6180 0.0670 0.0174 0 0 10 0
0.6520 0.0668 0.0157 0 0 10 0
0.6520 0.0668 0.0157 0 0 10 0
0.6460 0.0665 0.0163 0 0 10 0
0.6420 0.0662 0.0169 0 0 10 0
0.6200 0.0660 0.0171 0 0 10 0
0.6100 0.0659 0.0171 0 0 10 0
0.6360 0.0654 0.0188 0 0 10 0
0.6160 0.0652 0.0188 0 0 10 0
0.6320 0.0651 0.0173 0 0 10 0
0.6320 0.0651 0.0173 0 0 10 0
0.6380 0.0646 0.0175 0 0 10 0
0.6440 0.0641 0.0174 0 0 10 0
0.6580 0.0641 0.0174 0 0 10 0
0.6340 0.0632 0.0159 0 0 10 0
0.6180 0.0630 0.0156 0 0 10 0
0.6300 0.0624 0.0138 0 0 10 0
0.6300 0.0624 0.0138 0 0 10 0
0.6160 0.0618 0.0129 0 0 10 0
0.6160 0.0618 0.0129 0 0 10 0
0.6400 0.0614 0.0127 0 0 10 0
0.6320 0.0610 0.0134 0 0 10 0
0.6480 0.0606 0.0132 0 0 10 0
0.6440 0.0599 0.0142 0 0 10 0
0.6440 0.0599 0.0142 0 0 10 0
0.6380 0.0588 0.0145 0 0 10 0
0.6260 0.0584 0.0145 0 0 10 0
0.6460 0.0580 0.0144 0 0 10 0
0.6400 0.0577 0.0145 0 0 10 0
0.6500 0.0576 0.0146 0 0 10 0
0.6500 0.0576 0.0146 0 0 10 0
0.6480 0.0572 0.0143 0 0 10 0
0.6440 0.0569 0.0150 0 0 10 0
0.6460 0.0565 0.0148 0 0 10 0
0.6400 0.0560 0.0147 0 0 10 0
0.6440 0.0559 0.0157 0 0 10 0
0.6440 0.0559 0.0157 0 0 10 0
0.6600 0.0549 0.0154 0 0 10 0
0.6600 0.0544 0.0149 0 0 10 0
0.6600 0.0542 0.0144 0 0 10 0
0.6600 0.0542 0.0144 0 0 10 0
0.6460 0.0534 0.0157 0 0 10 0
0.6460 0.0534 0.0157 0 0 10 0
0.6420 0.0528 0.0164 0 0 10 0
0.6520 0.0522 0.0163 0 0 10 0
0.6660 0.0516 0.0161 0 0 10 0
0.6660 0.0516 0.0161 0 0 10 0
0.6460 0.0512 0.0142 0 0 10 0
0.6540 0.0510 0.0143 0 0 10 0
0.6340 0.0502 0.0152 0 0 10 0
0.6240 0.0494 0.0142 0 0 10 0
0.6300 0.0486 0.0136 0 0 10 0
0.6300 0.0486 0.0136 0 0 10 0
0.6620 0.0484 0.0140 0 0 10 0
0.6200 0.0480 0.0144 0 0 10 0
0.6480 0.0478 0.0119 0 0 10 0
0.6300 0.0475 0.0125 0 0 10 0
0.6300 0.0475 0.0125 0 0 10 0
0.6340 0.0467 0.0135 0 0 10 0
0.6400 0.0456 0.0115 0 0 10 0
0.6460 0.0453 0.0118 0 0 10 0
0.6400 0.0452 0.0125 0 0 10 0
0.6400 0.0450 0.0117 0 0 10 0
0.6280 0.0450 0.0117 0 0 10 0
0.6360 0.0448 0.0096 0 0 10 0
0.6420 0.0448 0.0096 0 0 10 0
0.6420 0.0443 0.0097 0 0 10 0
0.6580 0.0441 0.0096 0 0 10 0
0.6460 0.0441 0.0096 0 0 10 0
0.6460 0.0441 0.0096 0 0 10 0
0.6460 0.0437 0.0103 0 0 10 0
0.6620 0.0436 0.0105 0 0 10 0
0.6240 0.0431 0.0106 0 0 10 0
0.6240 0.0431 0.0106 0 0 10 0
0.6400 0.0423 0.0119 0 0 10 0
0.6400 0.0423 0.0119 0 0 10 0
0.6320 0.0424 0.0117 0 0 10 0
0.6400 0.0419 0.0117 0 0 10 0
0.6460 0.0411 0.0124 0 0 10 0
0.6460 0.0411 0.0124 0 0 10 0
0.6440 0.0410 0.0123 0 0 10 0
0.6240 0.0405 0.0113 0 0 10 0
0.6260 0.0403 0.0130 0 0 10 0
0.6400 0.0403 0.0139 0 0 10 0
0.6380 0.0401 0.0131 0 0 10 0
0.6380 0.0401 0.0131 0 0 10 0
0.6320 0.0394 0.0157 0 0 10 0
0.6480 0.0388 0.0170 0 0 10 0
0.6320 0.0375 0.0210 0 0 10 0
0.6500 0.0369 0.0208 0 0 10 0
0.6360 0.0367 0.0204 0 0 10 0
0.6280 0.0368 0.0210 0 0 10 0
0.6380 0.0367 0.0211 0 0 10 0
0.6420 0.0364 0.0213 0 0 10 0
0.6500 0.0357 0.0235 0 0 10 0
0.6500 0.0357 0.0235 0 0 10 0
0.6240 0.0355 0.0226 0 0 10 0
0.6440 0.0352 0.0224 0 0 10 0
0.6220 0.0345 0.0249 0 0 10 0
0.6300 0.0345 0.0246 0 0 10 0
0.6480 0.0341 0.0214 0 0 10 0
0.6440 0.0335 0.0214 0 0 10 0
0.6360 0.0330 0.0211 0 0 10 0
0.6360 0.0330 0.0211 0 0 10 0
0.6540 0.0315 0.0194 0 0 10 0
0.6540 0.0309 0.0191 0 0 10 0
0.6580 0.0309 0.0191 0 0 10 0
0.6280 0.0304 0.0196 0 0 10 0
0.6480 0.0298 0.0193 0 0 10 0
0.6440 0.0292 0.0170 0 0 10 0
0.6620 0.0292 0.0166 0 0 10 0
0.6620 0.0292 0.0166 0 0 10 0
0.6500 0.0289 0.0175 0 0 10 0
0.6780 0.0285 0.0128 0 0 10 0
0.7060 0.0276 0.0116 0 0 10 0
0.6880 0.0267 0.0126 0 0 10 0
0.6880 0.0267 0.0126 0 0 10 0
0.6660 0.0262 0.0123 0 0 10 0
0.6620 0.0257 0.0103 0 0 10 0
0.6600 0.0251 0.0102 0 0 10 0
0.6660 0.0245 0.0102 0 0 10 0
0.6680 0.0245 0.0085 0 0 10 0
0.6680 0.0245 0.0085 0 0 10 0
0.6620 0.0244 0.0055 0 0 10 0
0.6780 0.0241 0.0062 0 0 10 0
0.6680 0.0241 0.0081 0 0 10 0
0.6720 0.0240 0.0082 0 0 10 0
0.6760 0.0234 0.0096 0 0 10 0
0.6820 0.0233 0.0098 0 0 10 0
0.6800 0.0225 0.0104 0 0 10 0
0.6580 0.0219 0.0111 0 0 10 0
0.6580 0.0219 0.0111 0 0 10 0
0.6680 0.0212 0.0106 0 0 10 0
0.6740 0.0210 0.0106 0 0 10 0
0.6740 0.0206 0.0099 0 0 10 0
0.6740 0.0208 0.0079 0 0 10 0
0.6860 0.0208 0.0078 0 0 0 0
0.6960 0.0196 0.0088 0 0 10 0
0.6800 0.0188 0.0090 0 0 10 0
0.6720 0.0183 0.0080 0 0 10 0
0.6760 0.0177 0.0080 0 0 0 0
0.6760 0.0174 0.0055 0 0 10 0
0.6620 0.0167 0.0083 0 0 10 0
0.6620 0.0167 0.0083 0 0 10 0
0.6880 0.0166 0.0060 0 0 0 0
0.7020 0.0162 0.0083 0 0 10 0
0.7040 0.0158 0.0088 0 0 10 0
0.7040 0.0151 0.0104 0 0 10 0
0.7040 0.0151 0.0098 0 0 10 0
0.7040 0.0151 0.0098 0 0 0 0
0.6900 0.0144 0.0111 0 0 10 0
0.6880 0.0148 0.0074 0 0 10 0
0.7000 0.0146 0.0075 0 0 10 0
0.6920 0.0141 0.0076 0 0 0 0
0.7080 0.0137 0.0068 0 0 10 0
0.7160 0.0127 0.0065 0 0 10 0
0.7040 0.0120 0.0061 0 0 10 0
0.7020 0.0114 0.0061 0 0 0 0
0.6940 0.0108 0.0076 0 0 10 0
0.6960 0.0098 0.0081 0 0 10 0
0.6940 0.0097 0.0084 0 0 10 0
0.6940 0.0097 0.0084 0 0 0 0
0.6920 0.0080 0.0059 0 0 10 0
0.7180 0.0073 0.0057 0 0 10 0
0.7140 0.0073 0.0057 0 0 0 0
0.6960 0.0071 0.0005 0 0 10 0
0.7240 0.0067 0.0064 0 0 10 0
0.7280 0.0065 0.0065 0 0 0 0
0.7040 0.0056 0.0048 0 0 10 0
