0.5220 0.2841 -0.0034 0 0 10 0
0.5460 0.2835 -0.0025 0 0 10 0
0.5260 0.2837 -0.0052 0 0 10 0
0.5460 0.2844 -0.0045 0 0 10 0
0.5340 0.2845 -0.0062 0 0 10 0
0.5340 0.2845 -0.0062 0 0 10 0
0.5320 0.2844 -0.0052 0 0 10 0
0.5320 0.2844 -0.0052 0 0 10 0
0.5340 0.2837 -0.0050 0 0 10 0
0.5320 0.2834 -0.0044 0 0 10 0
0.5300 0.2834 -0.0048 0 0 10 0
0.5260 0.2835 -0.0027 0 0 10 0
0.5260 0.2835 -0.0027 0 0 10 0
0.5280 0.2838 -0.0028 0 0 10 0
0.5280 0.2841 -0.0030 0 0 10 0
0.5320 0.2835 -0.0034 0 0 10 0
0.5320 0.2835 -0.0034 0 0 10 0
0.5380 0.2829 -0.0035 0 0 10 0
0.5320 0.2829 -0.0035 0 0 10 0
0.5460 0.2821 -0.0042 0 0 10 0
0.5500 0.2816 -0.0041 0 0 10 0
0.5400 0.2812 -0.0041 0 0 10 0
0.5220 0.2813 -0.0044 0 0 10 0
0.5220 0.2813 -0.0044 0 0 10 0
0.5560 0.2813 -0.0045 0 0 10 0
0.5380 0.2806 -0.0066 0 0 10 0
0.5240 0.2806 -0.0069 0 0 10 0
0.5240 0.2806 -0.0069 0 0 10 0
0.5320 0.2810 -0.0069 0 0 10 0
0.5300 0.2809 -0.0062 0 0 10 0
0.5220 0.2797 -0.0058 0 0 10 0
0.5320 0.2789 -0.0082 0 0 10 0
0.5320 0.2789 -0.0082 0 0 10 0
0.5300 0.2775 -0.0054 0 0 10 0
0.5300 0.2768 -0.0066 0 0 10 0
0.5240 0.2769 -0.0069 0 0 10 0
0.5420 0.2766 -0.0061 0 0 10 0
0.5320 0.2766 -0.0061 0 0 10 0
0.5380 0.2762 -0.0058 0 0 10 0
0.5460 0.2758 -0.0063 0 0 10 0
0.5460 0.2758 -0.0063 0 0 10 0
0.5320 0.2753 -0.0071 0 0 10 0
0.5560 0.2742 -0.0079 0 0 10 0
0.5560 0.2742 -0.0079 0 0 10 0
0.5500 0.2738 -0.0073 0 0 10 0
0.5400 0.2732 -0.0074 0 0 10 0
0.5440 0.2732 -0.0059 0 0 10 0
0.5200 0.2733 -0.0046 0 0 10 0
0.5200 0.2733 -0.0046 0 0 10 0
0.5500 0.2731 -0.0046 0 0 10 0
0.5500 0.2731 -0.0046 0 0 10 0
0.5440 0.2722 -0.0041 0 0 10 0
0.5400 0.2715 -0.0020 0 0 10 0
0.5160 0.2714 -0.0021 0 0 10 0
0.5160 0.2714 -0.0021 0 0 10 0
0.5440 0.2713 -0.0023 0 0 10 0
0.5300 0.2706 -0.0029 0 0 10 0
0.5420 0.2702 -0.0026 0 0 10 0
0.5400 0.2699 -0.0018 0 0 10 0
0.5360 0.2694 -0.0020 0 0 10 0
0.5360 0.2694 -0.0020 0 0 10 0
0.5440 0.2689 -0.0000 0 0 10 0
0.5340 0.2683 0.0006 0 0 10 0
0.5340 0.2683 0.0006 0 0 10 0
0.5380 0.2680 0.0001 0 0 10 0
0.5480 0.2670 -0.0000 0 0 10 0
0.5480 0.2670 -0.0000 0 0 10 0
0.5480 0.2659 -0.0002 0 0 10 0
0.5240 0.2655 -0.0005 0 0 10 0
0.5300 0.2651 -0.0015 0 0 10 0
0.5300 0.2651 -0.0015 0 0 10 0
0.5300 0.2647 -0.0029 0 0 10 0
0.5500 0.2646 -0.0032 0 0 10 0
0.5620 0.2647 -0.0018 0 0 10 0
0.5500 0.2645 -0.0024 0 0 10 0
0.5500 0.2639 -0.0033 0 0 10 0
0.5340 0.2634 -0.0032 0 0 10 0
0.5340 0.2634 -0.0032 0 0 10 0
0.5360 0.2632 -0.0019 0 0 10 0
0.5100 0.2635 -0.0024 0 0 10 0
0.5200 0.2636 -0.0031 0 0 10 0
0.5460 0.2630 -0.0027 0 0 10 0
0.5380 0.2621 -0.0026 0 0 10 0
0.5140 0.2608 -0.0038 0 0 10 0
0.5300 0.2599 -0.0038 0 0 10 0
0.5420 0.2588 -0.0052 0 0 10 0
0.5300 0.2587 -0.0049 0 0 10 0
0.5300 0.2587 -0.0049 0 0 10 0
0.5400 0.2587 -0.0090 0 0 10 0
0.5360 0.2585 -0.0087 0 0 10 0
0.5360 0.2581 -0.0094 0 0 10 0
0.5360 0.2581 -0.0094 0 0 10 0
0.5300 0.2577 -0.0125 0 0 10 0
0.5460 0.2569 -0.0123 0 0 10 0
0.5280 0.2561 -0.0099 0 0 10 0
0.5540 0.2554 -0.0100 0 0 10 0
0.5380 0.2550 -0.0087 0 0 10 0
0.5300 0.2545 -0.0084 0 0 10 0
0.5400 0.2543 -0.0096 0 0 10 0
0.5400 0.2543 -0.0096 0 0 10 0
0.5240 0.2540 -0.0100 0 0 10 0
0.5400 0.2538 -0.0117 0 0 10 0
0.5260 0.2538 -0.0118 0 0 10 0
0.5200 0.2532 -0.0120 0 0 10 0
0.5200 0.2532 -0.0120 0 0 10 0
0.5300 0.2525 -0.0127 0 0 10 0
0.5360 0.2519 -0.0130 0 0 10 0
0.5520 0.2517 -0.0097 0 0 10 0
0.5420 0.2512 -0.0105 0 0 10 0
0.5420 0.2512 -0.0105 0 0 10 0
0.5560 0.2507 -0.0102 0 0 10 0
0.5560 0.2501 -0.0113 0 0 10 0
0.5480 0.2497 -0.0110 0 0 10 0
0.5520 0.2493 -0.0125 0 0 10 0
0.5640 0.2489 -0.0127 0 0 10 0
0.5560 0.2488 -0.0145 0 0 10 0
0.5560 0.2488 -0.0145 0 0 10 0
0.5440 0.2481 -0.0140 0 0 10 0
0.5200 0.2472 -0.0107 0 0 10 0
0.5440 0.2459 -0.0121 0 0 10 0
0.5560 0.2453 -0.0120 0 0 10 0
0.5620 0.2453 -0.0122 0 0 10 0
0.5620 0.2449 -0.0124 0 0 10 0
0.5500 0.2449 -0.0124 0 0 10 0
0.5480 0.2444 -0.0114 0 0 10 0
0.5440 0.2440 -0.0121 0 0 10 0
0.5440 0.2440 -0.0121 0 0 10 0
0.5320 0.2435 -0.0117 0 0 10 0
0.5320 0.2435 -0.0117 0 0 10 0
0.5340 0.2435 -0.0115 0 0 10 0
0.5660 0.2428 -0.0111 0 0 10 0
0.5380 0.2423 -0.0105 0 0 10 0
0.5540 0.2419 -0.0102 0 0 10 0
0.5540 0.2419 -0.0102 0 0 10 0
0.5580 0.2414 -0.0105 0 0 10 0
0.5400 0.2410 -0.0129 0 0 10 0
0.5500 0.2403 -0.0128 0 0 10 0
0.5300 0.2395 -0.0114 0 0 10 0
0.5380 0.2388 -0.0108 0 0 10 0
0.5260 0.2380 -0.0115 0 0 10 0
0.5260 0.2380 -0.0115 0 0 10 0
0.5320 0.2369 -0.0092 0 0 10 0
0.5320 0.2362 -0.0077 0 0 10 0
0.5320 0.2362 -0.0083 0 0 10 0
0.5140 0.2361 -0.0065 0 0 10 0
0.5440 0.2358 -0.0061 0 0 10 0
0.5440 0.2358 -0.0061 0 0 10 0
0.5300 0.2348 -0.0068 0 0 10 0
0.5300 0.2345 -0.0063 0 0 10 0
0.5100 0.2345 -0.0060 0 0 10 0
0.5100 0.2345 -0.0060 0 0 10 0
0.5380 0.2342 -0.0060 0 0 10 0
0.5300 0.2341 -0.0054 0 0 10 0
0.5280 0.2336 -0.0051 0 0 10 0
0.5320 0.2333 -0.0052 0 0 10 0
0.5620 0.2330 -0.0081 0 0 10 0
0.5280 0.2333 -0.0062 0 0 10 0
0.5280 0.2333 -0.0059 0 0 10 0
0.5320 0.2333 -0.0056 0 0 10 0
0.5320 0.2333 -0.0056 0 0 10 0
0.5480 0.2330 -0.0057 0 0 10 0
0.5500 0.2326 -0.0037 0 0 10 0
0.5520 0.2321 -0.0033 0 0 10 0
0.5360 0.2321 -0.0050 0 0 10 0
0.5500 0.2326 -0.0047 0 0 10 0
0.5400 0.2327 -0.0022 0 0 10 0
0.5400 0.2327 -0.0022 0 0 10 0
0.5380 0.2315 -0.0048 0 0 10 0
0.5240 0.2310 -0.0044 0 0 10 0
0.5240 0.2310 -0.0044 0 0 10 0
0.5440 0.2309 -0.0073 0 0 10 0
0.5440 0.2306 -0.0076 0 0 10 0
0.5500 0.2306 -0.0076 0 0 10 0
0.5580 0.2299 -0.0067 0 0 10 0
0.5540 0.2294 -0.0065 0 0 10 0
0.5560 0.2289 -0.0062 0 0 10 0
0.5560 0.2289 -0.0062 0 0 10 0
0.5500 0.2280 -0.0035 0 0 10 0
0.5500 0.2280 -0.0035 0 0 10 0
0.5420 0.2275 -0.0031 0 0 10 0
0.5540 0.2269 -0.0054 0 0 10 0
0.5740 0.2270 -0.0057 0 0 10 0
0.5660 0.2273 -0.0045 0 0 10 0
0.5660 0.2273 -0.0045 0 0 10 0
0.5640 0.2266 -0.0033 0 0 10 0
0.5340 0.2263 -0.0031 0 0 10 0
0.5520 0.2259 -0.0032 0 0 10 0
0.5620 0.2257 -0.0018 0 0 10 0
0.5480 0.2254 -0.0005 0 0 10 0
0.5420 0.2248 -0.0005 0 0 10 0
0.5420 0.2248 -0.0005 0 0 10 0
0.5620 0.2242 0.0014 0 0 10 0
0.5660 0.2235 0.0013 0 0 10 0
0.5740 0.2235 0.0013 0 0 10 0
0.5580 0.2220 0.0004 0 0 10 0
0.5580 0.2220 0.0004 0 0 10 0
0.5620 0.2209 -0.0007 0 0 10 0
0.5620 0.2209 -0.0007 0 0 10 0
0.5220 0.2205 0.0052 0 0 10 0
0.5520 0.2199 0.0048 0 0 10 0
0.5560 0.2193 0.0025 0 0 10 0
0.5720 0.2193 0.0026 0 0 10 0
0.5640 0.2188 0.0009 0 0 10 0
0.5620 0.2183 0.0010 0 0 10 0
0.5540 0.2176 -0.0015 0 0 10 0
0.5580 0.2175 -0.0013 0 0 10 0
0.5560 0.2165 -0.0031 0 0 10 0
0.5640 0.2158 -0.0027 0 0 10 0
0.5500 0.2154 -0.0042 0 0 10 0
0.5500 0.2154 -0.0042 0 0 10 0
0.5600 0.2148 -0.0037 0 0 10 0
0.5420 0.2148 -0.0037 0 0 10 0
0.5420 0.2147 -0.0037 0 0 10 0
0.5320 0.2147 -0.0024 0 0 10 0
0.5440 0.2145 -0.0020 0 0 10 0
0.5560 0.2139 -0.0036 0 0 10 0
0.5560 0.2139 -0.0036 0 0 10 0
0.5360 0.2127 -0.0032 0 0 10 0
0.5360 0.2127 -0.0032 0 0 10 0
0.5460 0.2125 -0.0018 0 0 10 0
0.5520 0.2126 -0.0018 0 0 10 0
0.5300 0.2124 -0.0026 0 0 10 0
0.5300 0.2124 -0.0026 0 0 10 0
0.5520 0.2116 -0.0022 0 0 10 0
0.5420 0.2107 -0.0007 0 0 10 0
0.5520 0.2099 -0.0003 0 0 10 0
0.5520 0.2099 -0.0003 0 0 10 0
0.5460 0.2098 -0.0014 0 0 10 0
0.5660 0.2097 0.0003 0 0 10 0
0.5580 0.2087 0.0002 0 0 10 0
0.5580 0.2087 0.0002 0 0 10 0
0.5860 0.2078 -0.0013 0 0 10 0
0.5600 0.2068 -0.0037 0 0 10 0
0.5880 0.2062 -0.0023 0 0 10 0
0.5880 0.2062 -0.0023 0 0 10 0
0.5560 0.2059 -0.0007 0 0 10 0
0.5640 0.2051 -0.0005 0 0 10 0
0.5540 0.2046 -0.0027 0 0 10 0
0.5540 0.2038 -0.0030 0 0 10 0
0.5500 0.2038 -0.0030 0 0 10 0
0.5660 0.2025 -0.0043 0 0 10 0
0.5660 0.2025 -0.0043 0 0 10 0
0.5520 0.2018 -0.0037 0 0 10 0
0.5580 0.2018 -0.0035 0 0 10 0
0.5480 0.2017 -0.0033 0 0 10 0
0.5580 0.2020 -0.0044 0 0 10 0
0.5640 0.2014 -0.0029 0 0 10 0
0.5640 0.2011 -0.0031 0 0 10 0
0.5640 0.2011 -0.0031 0 0 10 0
0.5780 0.2001 -0.0056 0 0 10 0
0.5660 0.1996 -0.0057 0 0 10 0
0.5720 0.1994 -0.0051 0 0 10 0
0.5440 0.1993 -0.0057 0 0 10 0
0.5700 0.1994 -0.0059 0 0 10 0
0.5700 0.1994 -0.0059 0 0 10 0
0.5560 0.1995 -0.0038 0 0 10 0
0.5680 0.1987 -0.0052 0 0 10 0
0.5600 0.1980 -0.0050 0 0 10 0
0.5600 0.1980 -0.0050 0 0 10 0
0.5500 0.1975 -0.0033 0 0 10 0
0.5560 0.1979 -0.0035 0 0 10 0
0.5560 0.1979 -0.0035 0 0 10 0
0.5700 0.1981 -0.0046 0 0 10 0
0.5700 0.1979 -0.0027 0 0 10 0
0.5700 0.1977 -0.0025 0 0 10 0
0.5700 0.1977 -0.0025 0 0 10 0
0.5480 0.1972 -0.0022 0 0 10 0
0.5600 0.1968 -0.0015 0 0 10 0
0.5560 0.1964 -0.0023 0 0 10 0
0.5560 0.1958 -0.0023 0 0 10 0
0.5640 0.1958 -0.0023 0 0 10 0
0.5740 0.1956 -0.0045 0 0 10 0
0.5560 0.1955 -0.0043 0 0 10 0
0.5820 0.1950 -0.0039 0 0 10 0
0.5720 0.1947 -0.0034 0 0 10 0
0.5720 0.1947 -0.0034 0 0 10 0
0.5680 0.1945 -0.0033 0 0 10 0
0.5520 0.1937 -0.0016 0 0 10 0
0.5800 0.1933 -0.0018 0 0 10 0
0.5800 0.1933 -0.0018 0 0 10 0
0.5760 0.1917 -0.0009 0 0 10 0
0.5720 0.1913 -0.0011 0 0 10 0
0.5580 0.1907 -0.0014 0 0 10 0
0.5720 0.1903 -0.0010 0 0 10 0
0.5640 0.1899 0.0012 0 0 10 0
0.5500 0.1899 0.0004 0 0 10 0
0.5500 0.1899 0.0004 0 0 10 0
0.5860 0.1902 -0.0003 0 0 10 0
0.5640 0.1895 -0.0018 0 0 10 0
0.5840 0.1887 -0.0015 0 0 10 0
0.5840 0.1887 -0.0015 0 0 10 0
0.5780 0.1879 -0.0024 0 0 10 0
0.5760 0.1876 -0.0022 0 0 10 0
0.5680 0.1877 -0.0061 0 0 10 0
0.5680 0.1880 -0.0051 0 0 10 0
0.5640 0.1878 -0.0049 0 0 10 0
0.5760 0.1873 -0.0042 0 0 10 0
0.5760 0.1873 -0.0042 0 0 10 0
0.5800 0.1864 -0.0041 0 0 10 0
0.5700 0.1855 -0.0037 0 0 10 0
0.5560 0.1851 -0.0039 0 0 10 0
0.5580 0.1848 -0.0023 0 0 10 0
0.5760 0.1845 -0.0028 0 0 10 0
0.5740 0.1839 0.0020 0 0 10 0
0.5740 0.1839 0.0020 0 0 10 0
0.5640 0.1833 0.0016 0 0 10 0
0.5600 0.1821 0.0015 0 0 10 0
0.5600 0.1816 -0.0003 0 0 10 0
0.5640 0.1816 -0.0003 0 0 10 0
0.5620 0.1808 0.0006 0 0 10 0
0.5680 0.1808 0.0006 0 0 10 0
0.5980 0.1803 -0.0015 0 0 10 0
0.5760 0.1795 -0.0016 0 0 10 0
0.5700 0.1789 -0.0025 0 0 10 0
0.5500 0.1786 -0.0023 0 0 10 0
0.5500 0.1786 -0.0023 0 0 10 0
0.5720 0.1782 -0.0017 0 0 10 0
0.5780 0.1775 -0.0005 0 0 10 0
0.5780 0.1775 -0.0005 0 0 10 0
0.5740 0.1770 -0.0020 0 0 10 0
0.5740 0.1770 -0.0020 0 0 10 0
0.5840 0.1766 -0.0027 0 0 10 0
0.5780 0.1765 -0.0022 0 0 10 0
0.5540 0.1758 -0.0028 0 0 10 0
0.5900 0.1753 -0.0031 0 0 10 0
0.5700 0.1744 -0.0023 0 0 10 0
0.5640 0.1741 -0.0026 0 0 10 0
0.5840 0.1742 -0.0033 0 0 10 0
0.5840 0.1742 -0.0033 0 0 10 0
0.5880 0.1739 -0.0038 0 0 10 0
0.5620 0.1732 -0.0023 0 0 10 0
0.5800 0.1728 -0.0025 0 0 10 0
0.5580 0.1712 -0.0047 0 0 10 0
0.5580 0.1712 -0.0047 0 0 10 0
0.5780 0.1709 -0.0036 0 0 10 0
0.5880 0.1706 -0.0028 0 0 10 0
0.5660 0.1698 -0.0026 0 0 10 0
0.5660 0.1698 -0.0026 0 0 10 0
0.5880 0.1681 -0.0014 0 0 10 0
0.5880 0.1681 -0.0014 0 0 10 0
0.5780 0.1672 -0.0012 0 0 10 0
0.5560 0.1666 -0.0018 0 0 10 0
0.5740 0.1666 -0.0022 0 0 10 0
0.5680 0.1666 -0.0028 0 0 10 0
0.5680 0.1666 -0.0028 0 0 10 0
0.5780 0.1662 -0.0028 0 0 10 0
0.5780 0.1662 -0.0028 0 0 10 0
0.5840 0.1655 -0.0027 0 0 10 0
0.5560 0.1648 -0.0066 0 0 10 0
0.5620 0.1643 -0.0068 0 0 10 0
0.5760 0.1640 -0.0048 0 0 10 0
0.5540 0.1639 -0.0036 0 0 10 0
0.5660 0.1638 -0.0029 0 0 10 0
0.5660 0.1638 -0.0029 0 0 10 0
0.5760 0.1639 -0.0025 0 0 10 0
0.5760 0.1620 -0.0051 0 0 10 0
0.5760 0.1620 -0.0051 0 0 10 0
0.5780 0.1614 -0.0063 0 0 10 0
0.5660 0.1613 -0.0038 0 0 10 0
0.5660 0.1613 -0.0038 0 0 10 0
0.5800 0.1610 -0.0055 0 0 10 0
0.5780 0.1609 -0.0055 0 0 10 0
0.5860 0.1607 -0.0046 0 0 10 0
0.5860 0.1607 -0.0046 0 0 10 0
0.5900 0.1600 -0.0045 0 0 10 0
0.5820 0.1590 -0.0041 0 0 10 0
0.5700 0.1584 -0.0042 0 0 10 0
0.5680 0.1578 -0.0035 0 0 10 0
0.5680 0.1578 -0.0035 0 0 10 0
0.5740 0.1570 -0.0078 0 0 10 0
0.5740 0.1570 -0.0078 0 0 10 0
0.5880 0.1566 -0.0062 0 0 10 0
0.5720 0.1563 -0.0066 0 0 10 0
0.5660 0.1559 -0.0068 0 0 10 0
0.5660 0.1559 -0.0068 0 0 10 0
0.5520 0.1555 -0.0069 0 0 10 0
0.5680 0.1548 -0.0038 0 0 10 0
0.5640 0.1545 -0.0032 0 0 10 0
0.5500 0.1541 -0.0029 0 0 10 0
0.5500 0.1541 -0.0029 0 0 10 0
0.5700 0.1539 -0.0021 0 0 10 0
0.5700 0.1539 -0.0021 0 0 10 0
0.5580 0.1538 -0.0017 0 0 10 0
0.5560 0.1536 -0.0011 0 0 10 0
0.5560 0.1536 -0.0011 0 0 10 0
0.5680 0.1532 -0.0005 0 0 10 0
0.5800 0.1528 -0.0024 0 0 10 0
0.5660 0.1522 -0.0023 0 0 10 0
0.5740 0.1516 0.0004 0 0 10 0
0.5740 0.1516 0.0004 0 0 10 0
0.5720 0.1515 0.0004 0 0 10 0
0.5720 0.1514 0.0011 0 0 10 0
0.5700 0.1513 0.0039 0 0 10 0
0.5820 0.1513 0.0043 0 0 10 0
0.5780 0.1507 0.0020 0 0 10 0
0.5780 0.1507 0.0020 0 0 10 0
0.5780 0.1500 0.0036 0 0 10 0
0.5740 0.1492 0.0039 0 0 10 0
0.5760 0.1482 0.0031 0 0 10 0
0.5760 0.1478 0.0049 0 0 10 0
0.5760 0.1478 0.0049 0 0 10 0
0.5820 0.1477 0.0054 0 0 10 0
0.5720 0.1474 0.0052 0 0 10 0
0.5880 0.1474 0.0055 0 0 10 0
0.5880 0.1467 0.0051 0 0 10 0
0.5880 0.1459 0.0052 0 0 10 0
0.5840 0.1451 0.0042 0 0 10 0
0.5840 0.1451 0.0042 0 0 10 0
0.5720 0.1449 0.0042 0 0 10 0
0.5720 0.1450 0.0051 0 0 10 0
0.5880 0.1448 0.0049 0 0 10 0
0.5720 0.1445 0.0043 0 0 10 0
0.5720 0.1445 0.0043 0 0 10 0
0.5700 0.1436 0.0046 0 0 10 0
0.5760 0.1435 0.0054 0 0 10 0
0.5680 0.1434 0.0048 0 0 10 0
0.5760 0.1430 0.0045 0 0 10 0
0.5780 0.1424 0.0038 0 0 10 0
0.5780 0.1424 0.0038 0 0 10 0
0.6060 0.1423 0.0036 0 0 10 0
0.6020 0.1419 0.0032 0 0 10 0
0.6000 0.1407 0.0029 0 0 10 0
0.5820 0.1399 0.0037 0 0 10 0
0.5940 0.1395 0.0037 0 0 10 0
0.5940 0.1395 0.0037 0 0 10 0
0.5960 0.1391 0.0027 0 0 10 0
0.6000 0.1388 0.0026 0 0 10 0
0.6200 0.1384 0.0025 0 0 10 0
0.6200 0.1384 0.0025 0 0 10 0
0.5880 0.1377 0.0023 0 0 10 0
0.6020 0.1361 0.0026 0 0 10 0
0.6000 0.1354 0.0026 0 0 10 0
0.6000 0.1354 0.0026 0 0 10 0
0.6220 0.1350 0.0012 0 0 10 0
0.6120 0.1349 0.0009 0 0 10 0
0.6180 0.1347 0.0007 0 0 10 0
0.5880 0.1346 -0.0001 0 0 10 0
0.5840 0.1344 -0.0004 0 0 10 0
0.5840 0.1344 -0.0004 0 0 10 0
0.6180 0.1339 -0.0007 0 0 10 0
0.6260 0.1335 -0.0006 0 0 10 0
0.6200 0.1324 -0.0030 0 0 10 0
0.5900 0.1322 -0.0030 0 0 10 0
0.5900 0.1322 -0.0030 0 0 10 0
0.6040 0.1321 -0.0020 0 0 10 0
0.6220 0.1319 -0.0023 0 0 10 0
0.6020 0.1312 -0.0023 0 0 10 0
0.6060 0.1305 -0.0001 0 0 10 0
0.5980 0.1298 0.0000 0 0 10 0
0.6200 0.1295 0.0004 0 0 10 0
0.6160 0.1292 0.0010 0 0 10 0
0.6160 0.1292 0.0010 0 0 10 0
0.6180 0.1290 0.0012 0 0 10 0
0.6060 0.1289 0.0001 0 0 10 0
0.6000 0.1284 -0.0000 0 0 10 0
0.6000 0.1284 -0.0000 0 0 10 0
0.6140 0.1282 0.0016 0 0 10 0
0.6120 0.1276 0.0015 0 0 10 0
0.6220 0.1273 0.0009 0 0 10 0
0.6280 0.1267 0.0005 0 0 10 0
0.6280 0.1267 0.0005 0 0 10 0
0.5900 0.1263 0.0010 0 0 10 0
0.6300 0.1261 -0.0000 0 0 10 0
0.6300 0.1261 -0.0000 0 0 10 0
0.6100 0.1256 -0.0002 0 0 10 0
0.6280 0.1256 -0.0002 0 0 10 0
0.6020 0.1249 -0.0012 0 0 10 0
0.6160 0.1238 -0.0012 0 0 10 0
0.5940 0.1235 -0.0021 0 0 10 0
0.6140 0.1232 -0.0019 0 0 10 0
0.6140 0.1232 -0.0019 0 0 10 0
0.6160 0.1227 -0.0024 0 0 10 0
0.6240 0.1220 -0.0023 0 0 10 0
0.6340 0.1213 -0.0019 0 0 10 0
0.6220 0.1207 -0.0013 0 0 10 0
0.6260 0.1207 -0.0037 0 0 10 0
0.6260 0.1207 -0.0037 0 0 10 0
0.5920 0.1207 -0.0035 0 0 10 0
0.6140 0.1205 -0.0046 0 0 10 0
0.6100 0.1203 -0.0055 0 0 10 0
0.5840 0.1198 -0.0059 0 0 10 0
0.5840 0.1198 -0.0059 0 0 10 0
0.6080 0.1191 -0.0050 0 0 10 0
0.6080 0.1185 -0.0047 0 0 10 0
0.6160 0.1180 -0.0046 0 0 10 0
0.6220 0.1171 -0.0028 0 0 10 0
0.6040 0.1171 -0.0028 0 0 10 0
0.6140 0.1164 -0.0032 0 0 10 0
0.5920 0.1156 -0.0036 0 0 10 0
0.6100 0.1148 -0.0037 0 0 10 0
0.6300 0.1148 -0.0019 0 0 10 0
0.6040 0.1144 -0.0016 0 0 10 0
0.6040 0.1144 -0.0016 0 0 10 0
0.6140 0.1148 -0.0018 0 0 10 0
0.6120 0.1149 -0.0005 0 0 10 0
0.6320 0.1143 -0.0003 0 0 10 0
0.6320 0.1124 -0.0004 0 0 10 0
0.6320 0.1124 -0.0004 0 0 10 0
0.5980 0.1115 0.0008 0 0 10 0
0.5980 0.1115 0.0008 0 0 10 0
0.6140 0.1117 0.0007 0 0 10 0
0.6200 0.1118 0.0014 0 0 10 0
0.6180 0.1118 0.0022 0 0 10 0
0.6080 0.1115 0.0020 0 0 10 0
0.6100 0.1102 0.0000 0 0 10 0
0.6100 0.1102 0.0000 0 0 10 0
0.6240 0.1101 0.0019 0 0 10 0
0.6260 0.1097 0.0055 0 0 10 0
0.6160 0.1097 0.0051 0 0 10 0
0.6280 0.1099 0.0046 0 0 10 0
0.6280 0.1099 0.0046 0 0 10 0
0.6280 0.1096 0.0057 0 0 10 0
0.6160 0.1091 0.0042 0 0 10 0
0.6140 0.1085 0.0042 0 0 10 0
0.6140 0.1085 0.0042 0 0 10 0
0.6120 0.1082 0.0053 0 0 10 0
0.6140 0.1079 0.0050 0 0 10 0
0.6040 0.1075 0.0014 0 0 10 0
0.5960 0.1072 0.0014 0 0 10 0
0.6160 0.1070 0.0025 0 0 10 0
0.6160 0.1070 0.0025 0 0 10 0
0.6320 0.1067 0.0016 0 0 10 0
0.6020 0.1066 0.0000 0 0 10 0
0.5900 0.1062 0.0004 0 0 10 0
0.6260 0.1052 0.0021 0 0 10 0
0.6260 0.1052 0.0021 0 0 10 0
0.5940 0.1040 0.0010 0 0 10 0
0.5980 0.1040 0.0010 0 0 10 0
0.6140 0.1032 0.0020 0 0 10 0
0.6240 0.1029 0.0022 0 0 10 0
0.6140 0.1026 0.0004 0 0 10 0
0.6220 0.1024 0.0003 0 0 10 0
0.6220 0.1024 0.0003 0 0 10 0
0.6100 0.1015 0.0011 0 0 10 0
0.6180 0.1014 0.0015 0 0 10 0
0.6200 0.1011 0.0007 0 0 10 0
0.6220 0.1006 0.0008 0 0 10 0
0.6360 0.1001 0.0015 0 0 10 0
0.6360 0.1001 0.0015 0 0 10 0
0.6260 0.0992 0.0011 0 0 10 0
0.5960 0.0983 0.0012 0 0 10 0
0.6140 0.0975 0.0014 0 0 10 0
0.6220 0.0975 0.0013 0 0 10 0
0.6220 0.0975 0.0013 0 0 10 0
0.6080 0.0970 -0.0001 0 0 10 0
0.6200 0.0960 0.0015 0 0 10 0
0.6160 0.0955 0.0017 0 0 10 0
0.6220 0.0952 0.0014 0 0 10 0
0.6220 0.0952 0.0014 0 0 10 0
0.6100 0.0952 0.0013 0 0 10 0
0.6180 0.0953 0.0029 0 0 10 0
0.6100 0.0951 0.0031 0 0 10 0
0.6100 0.0952 0.0069 0 0 10 0
0.6100 0.0944 0.0067 0 0 10 0
0.6140 0.0939 0.0059 0 0 10 0
0.6140 0.0939 0.0059 0 0 10 0
0.6360 0.0931 0.0058 0 0 10 0
0.6180 0.0925 0.0059 0 0 10 0
0.6280 0.0921 0.0043 0 0 10 0
0.6060 0.0917 0.0040 0 0 10 0
0.6060 0.0917 0.0040 0 0 10 0
0.6320 0.0912 0.0007 0 0 10 0
0.6040 0.0907 0.0003 0 0 10 0
0.6180 0.0900 0.0004 0 0 10 0
0.6240 0.0893 0.0005 0 0 10 0
0.6120 0.0890 0.0023 0 0 10 0
0.6400 0.0889 0.0019 0 0 10 0
0.6200 0.0883 0.0013 0 0 10 0
0.6020 0.0878 0.0012 0 0 10 0
0.6200 0.0876 0.0008 0 0 10 0
0.6200 0.0876 0.0008 0 0 10 0
0.6180 0.0863 0.0013 0 0 10 0
0.6180 0.0863 0.0013 0 0 10 0
0.6040 0.0868 0.0004 0 0 10 0
0.6200 0.0863 0.0007 0 0 10 0
0.6200 0.0858 0.0008 0 0 10 0
0.6280 0.0858 0.0008 0 0 10 0
0.6220 0.0855 -0.0014 0 0 10 0
0.6220 0.0852 -0.0018 0 0 10 0
0.6020 0.0843 0.0030 0 0 10 0
0.6200 0.0848 -0.0006 0 0 10 0
0.6200 0.0848 -0.0006 0 0 10 0
0.6120 0.0848 -0.0007 0 0 10 0
0.6120 0.0841 0.0003 0 0 10 0
0.6180 0.0830 0.0008 0 0 10 0
0.6140 0.0828 -0.0012 0 0 10 0
0.6140 0.0828 -0.0012 0 0 10 0
0.6000 0.0823 0.0002 0 0 10 0
0.6380 0.0824 0.0005 0 0 10 0
0.6320 0.0826 -0.0010 0 0 10 0
0.6220 0.0828 -0.0005 0 0 10 0
0.6280 0.0830 0.0009 0 0 10 0
0.6240 0.0825 0.0013 0 0 10 0
0.6180 0.0814 0.0004 0 0 10 0
0.6180 0.0814 0.0004 0 0 10 0
0.6140 0.0801 0.0038 0 0 10 0
0.6220 0.0800 0.0040 0 0 10 0
0.6400 0.0791 0.0034 0 0 10 0
0.6460 0.0785 0.0035 0 0 10 0
0.6140 0.0783 0.0051 0 0 10 0
0.6340 0.0779 0.0037 0 0 10 0
0.6340 0.0779 0.0037 0 0 10 0
0.6240 0.0771 0.0037 0 0 10 0
0.6240 0.0769 0.0038 0 0 10 0
0.6240 0.0764 0.0032 0 0 10 0
0.6240 0.0764 0.0032 0 0 10 0
0.6180 0.0757 0.0023 0 0 10 0
0.6300 0.0751 0.0024 0 0 10 0
0.6260 0.0746 0.0036 0 0 10 0
0.6120 0.0740 0.0033 0 0 10 0
0.6340 0.0737 0.0033 0 0 10 0
0.6200 0.0735 0.0051 0 0 10 0
0.6200 0.0735 0.0051 0 0 10 0
0.6160 0.0730 0.0035 0 0 10 0
0.6320 0.0722 0.0042 0 0 10 0
0.6400 0.0718 0.0051 0 0 10 0
0.6400 0.0717 0.0051 0 0 10 0
0.6380 0.0717 0.0051 0 0 10 0
0.6280 0.0714 0.0057 0 0 10 0
0.6320 0.0705 0.0019 0 0 10 0
0.6080 0.0694 0.0016 0 0 10 0
0.6280 0.0691 0.0011 0 0 10 0
0.6100 0.0688 -0.0014 0 0 10 0
0.6100 0.0688 -0.0016 0 0 10 0
0.6380 0.0684 -0.0004 0 0 10 0
0.6380 0.0684 -0.0004 0 0 10 0
0.6380 0.0677 -0.0001 0 0 10 0
0.6340 0.0673 -0.0012 0 0 10 0
0.6400 0.0668 -0.0015 0 0 10 0
0.6400 0.0668 -0.0015 0 0 10 0
0.6240 0.0667 0.0002 0 0 10 0
0.6400 0.0665 -0.0009 0 0 10 0
0.6220 0.0666 -0.0009 0 0 10 0
0.6440 0.0662 -0.0011 0 0 10 0
0.6340 0.0654 -0.0003 0 0 10 0
0.6360 0.0644 -0.0014 0 0 10 0
0.6200 0.0642 -0.0007 0 0 10 0
0.6200 0.0640 0.0003 0 0 10 0
0.6360 0.0637 0.0003 0 0 10 0
0.6480 0.0636 0.0011 0 0 10 0
0.6480 0.0636 0.0011 0 0 10 0
0.6380 0.0631 0.0010 0 0 10 0
0.6360 0.0628 0.0022 0 0 10 0
0.6180 0.0626 0.0019 0 0 10 0
0.6180 0.0626 0.0019 0 0 10 0
0.6320 0.0624 0.0009 0 0 10 0
0.6220 0.0624 0.0005 0 0 10 0
0.6320 0.0619 0.0004 0 0 10 0
0.6320 0.0619 0.0004 0 0 10 0
0.6200 0.0604 0.0002 0 0 10 0
0.6620 0.0597 0.0004 0 0 10 0
0.6620 0.0597 0.0004 0 0 10 0
0.6480 0.0584 -0.0017 0 0 10 0
0.6520 0.0582 -0.0020 0 0 10 0
0.6520 0.0582 -0.0020 0 0 10 0
0.6540 0.0572 -0.0001 0 0 10 0
0.6540 0.0571 -0.0014 0 0 10 0
0.6540 0.0565 -0.0019 0 0 10 0
0.6440 0.0560 -0.0018 0 0 10 0
0.6360 0.0557 -0.0022 0 0 10 0
0.6360 0.0557 -0.0022 0 0 10 0
0.6500 0.0553 -0.0009 0 0 10 0
0.6520 0.0551 -0.0007 0 0 10 0
0.6400 0.0546 0.0004 0 0 10 0
0.6400 0.0546 0.0004 0 0 10 0
0.6500 0.0542 -0.0045 0 0 10 0
0.6440 0.0539 -0.0030 0 0 10 0
0.6540 0.0534 -0.0033 0 0 10 0
0.6480 0.0529 -0.0052 0 0 10 0
0.6820 0.0527 -0.0055 0 0 10 0
0.6820 0.0527 -0.0055 0 0 10 0
0.6360 0.0519 -0.0043 0 0 10 0
0.6340 0.0517 -0.0047 0 0 10 0
0.6580 0.0513 -0.0037 0 0 10 0
0.6580 0.0513 -0.0037 0 0 10 0
0.6820 0.0507 -0.0033 0 0 10 0
0.6820 0.0507 -0.0033 0 0 10 0
0.6600 0.0498 -0.0029 0 0 10 0
0.6700 0.0486 -0.0032 0 0 10 0
0.6500 0.0481 -0.0026 0 0 10 0
0.6620 0.0478 0.0008 0 0 10 0
0.6780 0.0476 0.0020 0 0 10 0
0.6720 0.0475 0.0016 0 0 10 0
0.6480 0.0476 0.0031 0 0 10 0
0.6660 0.0474 0.0029 0 0 10 0
0.6560 0.0470 0.0026 0 0 10 0
0.6760 0.0463 0.0027 0 0 10 0
0.6760 0.0463 0.0027 0 0 10 0
0.6520 0.0455 0.0033 0 0 10 0
0.6460 0.0450 0.0037 0 0 10 0
0.6880 0.0451 0.0037 0 0 10 0
0.6720 0.0451 0.0041 0 0 10 0
0.6720 0.0451 0.0041 0 0 10 0
0.6680 0.0450 0.0041 0 0 10 0
0.6540 0.0444 0.0025 0 0 10 0
0.6580 0.0440 0.0031 0 0 10 0
0.6500 0.0432 0.0030 0 0 10 0
0.6480 0.0426 0.0019 0 0 10 0
0.6620 0.0422 0.0021 0 0 10 0
0.6620 0.0422 0.0021 0 0 10 0
0.6500 0.0420 0.0023 0 0 10 0
0.6560 0.0410 0.0005 0 0 10 0
0.6560 0.0402 0.0012 0 0 10 0
0.6660 0.0402 0.0012 0 0 10 0
0.6680 0.0390 0.0020 0 0 10 0
0.6660 0.0383 0.0023 0 0 10 0
0.6780 0.0371 0.0004 0 0 10 0
0.6540 0.0365 0.0004 0 0 10 0
0.6660 0.0365 0.0012 0 0 10 0
0.6660 0.0365 0.0012 0 0 10 0
0.6640 0.0364 0.0008 0 0 10 0
0.6760 0.0368 0.0007 0 0 10 0
0.6580 0.0372 0.0002 0 0 10 0
0.6580 0.0372 0.0002 0 0 10 0
0.6840 0.0366 0.0006 0 0 10 0
0.6480 0.0351 -0.0004 0 0 10 0
0.6480 0.0351 -0.0004 0 0 10 0
0.6660 0.0342 0.0007 0 0 10 0
0.6440 0.0337 0.0011 0 0 10 0
0.6460 0.0337 0.0012 0 0 10 0
0.6460 0.0337 0.0012 0 0 10 0
0.6400 0.0339 0.0010 0 0 10 0
0.6580 0.0340 0.0024 0 0 10 0
0.6600 0.0337 0.0022 0 0 10 0
0.6560 0.0328 0.0022 0 0 10 0
0.6680 0.0318 0.0021 0 0 10 0
0.6580 0.0314 0.0033 0 0 10 0
0.6580 0.0314 0.0033 0 0 10 0
0.6560 0.0312 0.0021 0 0 10 0
0.6580 0.0302 0.0024 0 0 10 0
0.6580 0.0302 0.0024 0 0 10 0
0.6720 0.0292 0.0022 0 0 10 0
0.6580 0.0289 0.0020 0 0 10 0
0.6620 0.0284 0.0026 0 0 10 0
0.6620 0.0284 0.0026 0 0 10 0
0.6700 0.0285 0.0022 0 0 10 0
0.6680 0.0288 0.0015 0 0 10 0
0.6380 0.0289 0.0015 0 0 10 0
0.6620 0.0285 0.0016 0 0 10 0
0.6700 0.0278 0.0019 0 0 10 0
0.6620 0.0272 0.0021 0 0 10 0
0.6620 0.0268 0.0035 0 0 10 0
0.6800 0.0268 0.0035 0 0 10 0
0.6860 0.0264 0.0014 0 0 10 0
0.6780 0.0261 0.0015 0 0 10 0
0.6900 0.0257 0.0023 0 0 10 0
0.6760 0.0255 0.0018 0 0 10 0
0.6860 0.0249 0.0006 0 0 10 0
0.6920 0.0244 0.0003 0 0 10 0
0.6720 0.0240 0.0014 0 0 10 0
0.6880 0.0237 0.0013 0 0 10 0
0.6800 0.0232 0.0021 0 0 0 0
0.6740 0.0218 0.0007 0 0 10 0
0.6920 0.0200 -0.0007 0 0 10 0
0.6900 0.0198 -0.0006 0 0 10 0
0.6920 0.0196 0.0006 0 0 10 0
0.6900 0.0195 0.0005 0 0 0 0
0.7080 0.0191 0.0015 0 0 10 0
0.7060 0.0176 0.0024 0 0 10 0
0.6900 0.0174 0.0018 0 0 10 0
0.6900 0.0174 0.0018 0 0 10 0
0.6640 0.0170 0.0019 0 0 10 0
0.6560 0.0167 0.0024 0 0 10 0
0.7000 0.0163 0.0026 0 0 10 0
0.7000 0.0155 0.0027 0 0 10 0
0.7000 0.0155 0.0027 0 0 10 0
0.7040 0.0146 0.0031 0 0 10 0
0.6960 0.0142 0.0031 0 0 10 0
0.7040 0.0139 0.0004 0 0 10 0
0.7060 0.0141 0.0008 0 0 10 0
0.7060 0.0141 0.0008 0 0 10 0
0.7080 0.0143 0.0005 0 0 0 0
0.7160 0.0124 -0.0002 0 0 10 0
0.7160 0.0105 -0.0028 0 0 10 0
0.7080 0.0110 -0.0030 0 0 10 0
0.7100 0.0109 -0.0031 0 0 10 0
0.7060 0.0107 -0.0036 0 0 0 0
0.7100 0.0093 -0.0026 0 0 10 0
0.7260 0.0100 -0.0024 0 0 10 0
0.7280 0.0102 -0.0024 0 0 10 0
0.7280 0.0102 -0.0024 0 0 0 0
0.7060 0.0085 -0.0043 0 0 10 0
0.7080 0.0093 -0.0065 0 0 10 0
0.7140 0.0097 -0.0076 0 0 0 0
0.6940 0.0075 -0.0051 0 0 10 0
0.7040 0.0071 -0.0056 0 0 10 0
0.7060 0.0068 -0.0045 0 0 0 0
0.7220 0.0073 -0.0057 0 0 10 0
0.7160 0.0072 -0.0072 0 0 10 0
0.7160 0.0061 -0.0067 0 0 10 0
0.7120 0.0061 -0.0067 0 0 0 0
0.7200 0.0064 -0.0058 0 0 10 0
0.7320 0.0064 -0.0042 0 0 10 0
0.7060 0.0053 -0.0052 0 0 10 0
