0.4900 0.3638 -0.0038 0 0 10 0
0.5080 0.3642 -0.0007 0 0 10 0
0.5240 0.3640 0.0005 0 0 10 0
0.5200 0.3638 0.0003 0 0 10 0
0.5200 0.3636 -0.0018 0 0 10 0
0.5220 0.3638 -0.0012 0 0 10 0
0.5160 0.3637 -0.0015 0 0 10 0
0.5040 0.3633 -0.0028 0 0 10 0
0.4960 0.3635 -0.0028 0 0 10 0
0.5080 0.3632 -0.0011 0 0 10 0
0.5040 0.3633 -0.0011 0 0 10 0
0.5240 0.3638 -0.0009 0 0 10 0
0.5240 0.3638 -0.0009 0 0 10 0
0.5000 0.3637 -0.0010 0 0 10 0
0.4880 0.3635 0.0001 0 0 10 0
0.5060 0.3632 -0.0004 0 0 10 0
0.5000 0.3629 -0.0015 0 0 10 0
0.5100 0.3626 -0.0018 0 0 10 0
0.5340 0.3621 -0.0005 0 0 10 0
0.5340 0.3621 -0.0005 0 0 10 0
0.5260 0.3617 -0.0009 0 0 10 0
0.5020 0.3615 -0.0024 0 0 10 0
0.4940 0.3609 -0.0046 0 0 10 0
0.4940 0.3609 -0.0046 0 0 10 0
0.5020 0.3601 -0.0044 0 0 10 0
0.5020 0.3601 -0.0044 0 0 10 0
0.5040 0.3597 -0.0039 0 0 10 0
0.5020 0.3594 -0.0039 0 0 10 0
0.4980 0.3593 -0.0038 0 0 10 0
0.5000 0.3589 -0.0070 0 0 10 0
0.5000 0.3589 -0.0070 0 0 10 0
0.5020 0.3581 -0.0073 0 0 10 0
0.4800 0.3581 -0.0073 0 0 10 0
0.4860 0.3578 -0.0082 0 0 10 0
0.4860 0.3575 -0.0109 0 0 10 0
0.5180 0.3568 -0.0119 0 0 10 0
0.4800 0.3561 -0.0114 0 0 10 0
0.4800 0.3561 -0.0114 0 0 10 0
0.4940 0.3558 -0.0119 0 0 10 0
0.4900 0.3552 -0.0159 0 0 10 0
0.4860 0.3548 -0.0149 0 0 10 0
0.5000 0.3542 -0.0146 0 0 10 0
0.5100 0.3539 -0.0164 0 0 10 0
0.5100 0.3538 -0.0161 0 0 10 0
0.5100 0.3538 -0.0161 0 0 10 0
0.5020 0.3532 -0.0164 0 0 10 0
0.5120 0.3527 -0.0160 0 0 10 0
0.4960 0.3524 -0.0159 0 0 10 0
0.5060 0.3521 -0.0155 0 0 10 0
0.4980 0.3514 -0.0157 0 0 10 0
0.5160 0.3509 -0.0153 0 0 10 0
0.5160 0.3509 -0.0153 0 0 10 0
0.4940 0.3504 -0.0155 0 0 10 0
0.5000 0.3497 -0.0150 0 0 10 0
0.5100 0.3493 -0.0167 0 0 10 0
0.5100 0.3493 -0.0167 0 0 10 0
0.4780 0.3485 -0.0177 0 0 10 0
0.5180 0.3478 -0.0156 0 0 10 0
0.5180 0.3478 -0.0156 0 0 10 0
0.4940 0.3467 -0.0165 0 0 10 0
0.4940 0.3467 -0.0165 0 0 10 0
0.5160 0.3467 -0.0202 0 0 10 0
0.5080 0.3464 -0.0208 0 0 10 0
0.5000 0.3462 -0.0215 0 0 10 0
0.4980 0.3457 -0.0187 0 0 10 0
0.4980 0.3457 -0.0187 0 0 10 0
0.5160 0.3450 -0.0182 0 0 10 0
0.4900 0.3450 -0.0182 0 0 10 0
0.5040 0.3440 -0.0186 0 0 10 0
0.5040 0.3433 -0.0225 0 0 10 0
0.5000 0.3429 -0.0180 0 0 10 0
0.5080 0.3428 -0.0176 0 0 10 0
0.5080 0.3428 -0.0176 0 0 10 0
0.5040 0.3422 -0.0150 0 0 10 0
0.4900 0.3418 -0.0145 0 0 10 0
0.4920 0.3414 -0.0156 0 0 10 0
0.4920 0.3414 -0.0156 0 0 10 0
0.4960 0.3408 -0.0155 0 0 10 0
0.5100 0.3407 -0.0189 0 0 10 0
0.5040 0.3403 -0.0185 0 0 10 0
0.5140 0.3397 -0.0217 0 0 10 0
0.4820 0.3393 -0.0215 0 0 10 0
0.4920 0.3390 -0.0216 0 0 10 0
0.4920 0.3390 -0.0216 0 0 10 0
0.4820 0.3382 -0.0207 0 0 10 0
0.4880 0.3380 -0.0206 0 0 10 0
0.5100 0.3380 -0.0194 0 0 10 0
0.5100 0.3380 -0.0194 0 0 10 0
0.5080 0.3375 -0.0251 0 0 10 0
0.5080 0.3369 -0.0275 0 0 10 0
0.5320 0.3369 -0.0275 0 0 10 0
0.5120 0.3358 -0.0305 0 0 10 0
0.5080 0.3354 -0.0292 0 0 10 0
0.5080 0.3354 -0.0292 0 0 10 0
0.4900 0.3346 -0.0305 0 0 10 0
0.5040 0.3344 -0.0315 0 0 10 0
0.5000 0.3345 -0.0334 0 0 10 0
0.5000 0.3345 -0.0334 0 0 10 0
0.5060 0.3335 -0.0327 0 0 10 0
0.5060 0.3335 -0.0327 0 0 10 0
0.4940 0.3327 -0.0310 0 0 10 0
0.4980 0.3323 -0.0316 0 0 10 0
0.5200 0.3320 -0.0301 0 0 10 0
0.5100 0.3314 -0.0308 0 0 10 0
0.5100 0.3314 -0.0308 0 0 10 0
0.4880 0.3308 -0.0295 0 0 10 0
0.4980 0.3307 -0.0286 0 0 10 0
0.5100 0.3304 -0.0275 0 0 10 0
0.5300 0.3304 -0.0272 0 0 10 0
0.4880 0.3297 -0.0257 0 0 10 0
0.4880 0.3297 -0.0257 0 0 10 0
0.5080 0.3291 -0.0257 0 0 10 0
0.5120 0.3286 -0.0244 0 0 10 0
0.5240 0.3282 -0.0265 0 0 10 0
0.5080 0.3278 -0.0251 0 0 10 0
0.5080 0.3278 -0.0251 0 0 10 0
0.5120 0.3273 -0.0248 0 0 10 0
0.4920 0.3268 -0.0238 0 0 10 0
0.4960 0.3263 -0.0236 0 0 10 0
0.4960 0.3263 -0.0236 0 0 10 0
0.5080 0.3259 -0.0230 0 0 10 0
0.5080 0.3259 -0.0230 0 0 10 0
0.4980 0.3255 -0.0233 0 0 10 0
0.4920 0.3252 -0.0240 0 0 10 0
0.4940 0.3250 -0.0231 0 0 10 0
0.5120 0.3249 -0.0230 0 0 10 0
0.4880 0.3249 -0.0222 0 0 10 0
0.5060 0.3244 -0.0232 0 0 10 0
0.5060 0.3244 -0.0232 0 0 10 0
0.4720 0.3238 -0.0213 0 0 10 0
0.4960 0.3228 -0.0200 0 0 10 0
0.4960 0.3221 -0.0209 0 0 10 0
0.5080 0.3221 -0.0209 0 0 10 0
0.4920 0.3218 -0.0204 0 0 10 0
0.5100 0.3218 -0.0204 0 0 10 0
0.5260 0.3214 -0.0230 0 0 10 0
0.5180 0.3212 -0.0222 0 0 10 0
0.5180 0.3212 -0.0222 0 0 10 0
0.5320 0.3208 -0.0238 0 0 10 0
0.5100 0.3200 -0.0229 0 0 10 0
0.5040 0.3195 -0.0232 0 0 0 0
0.5020 0.3191 -0.0241 0 0 0 10
0.5240 0.3181 -0.0228 0 0 0 10
0.5240 0.3176 -0.0208 0 0 0 10
0.5240 0.3176 -0.0208 0 0 0 10
0.5280 0.3168 -0.0192 0 0 0 0
0.5160 0.3174 -0.0178 0 0 0 10
0.5380 0.3171 -0.0113 0 0 0 10
0.5140 0.3165 -0.0089 0 0 0 0
0.5060 0.3154 -0.0082 0 0 0 0
0.5160 0.3142 -0.0023 0 0 10 0
0.5340 0.3166 -0.0005 0 0 10 0
0.5140 0.3153 0.0001 0 0 10 0
0.5140 0.3153 0.0001 0 0 10 0
0.5300 0.3152 0.0005 0 0 10 0
0.5220 0.3152 -0.0007 0 0 10 0
0.5080 0.3153 0.0004 0 0 10 0
0.5180 0.3149 0.0012 0 0 10 0
0.5180 0.3149 0.0012 0 0 10 0
0.5020 0.3142 0.0007 0 0 10 0
0.5020 0.3142 0.0007 0 0 10 0
0.5100 0.3142 0.0045 0 0 10 0
0.5140 0.3140 0.0002 0 0 10 0
0.5060 0.3140 -0.0005 0 0 10 0
0.5060 0.3140 -0.0005 0 0 10 0
0.5260 0.3141 0.0024 0 0 10 0
0.5260 0.3141 0.0024 0 0 10 0
0.5100 0.3139 0.0000 0 0 10 0
0.5240 0.3136 0.0000 0 0 10 0
0.5220 0.3126 0.0027 0 0 10 0
0.5200 0.3118 0.0035 0 0 10 0
0.5200 0.3118 0.0035 0 0 10 0
0.5060 0.3115 0.0047 0 0 10 0
0.5140 0.3109 0.0051 0 0 10 0
0.5160 0.3110 0.0069 0 0 10 0
0.5120 0.3110 0.0063 0 0 10 0
0.5420 0.3103 0.0066 0 0 10 0
0.5420 0.3103 0.0066 0 0 10 0
0.4980 0.3094 0.0069 0 0 10 0
0.5440 0.3088 0.0076 0 0 10 0
0.5320 0.3078 0.0058 0 0 10 0
0.5320 0.3078 0.0058 0 0 10 0
0.5220 0.3070 0.0065 0 0 10 0
0.5260 0.3067 0.0080 0 0 10 0
0.5240 0.3065 0.0069 0 0 10 0
0.5480 0.3059 0.0075 0 0 10 0
0.5280 0.3055 0.0056 0 0 10 0
0.5300 0.3045 0.0061 0 0 10 0
0.5460 0.3036 0.0042 0 0 10 0
0.5240 0.3028 0.0063 0 0 10 0
0.5240 0.3020 0.0059 0 0 10 0
0.5180 0.3020 0.0059 0 0 10 0
0.5240 0.3023 0.0039 0 0 10 0
0.5420 0.3022 0.0044 0 0 10 0
0.5420 0.3022 0.0044 0 0 10 0
0.5220 0.3019 0.0035 0 0 10 0
0.5300 0.3019 0.0033 0 0 10 0
0.5420 0.3016 0.0027 0 0 10 0
0.5200 0.3011 0.0044 0 0 10 0
0.5240 0.3004 0.0041 0 0 10 0
0.5360 0.2998 0.0050 0 0 10 0
0.5360 0.2998 0.0050 0 0 10 0
0.5140 0.2991 0.0046 0 0 10 0
0.5320 0.2989 0.0067 0 0 10 0
0.5500 0.2987 0.0062 0 0 10 0
0.5420 0.2974 0.0070 0 0 10 0
0.5380 0.2974 0.0070 0 0 10 0
0.5300 0.2974 0.0072 0 0 10 0
0.5340 0.2972 0.0072 0 0 10 0
0.5520 0.2968 0.0072 0 0 10 0
0.5520 0.2968 0.0072 0 0 10 0
0.5300 0.2959 0.0079 0 0 10 0
0.5580 0.2952 0.0072 0 0 10 0
0.5320 0.2952 0.0080 0 0 10 0
0.5320 0.2952 0.0080 0 0 10 0
0.5340 0.2944 0.0075 0 0 10 0
0.5340 0.2944 0.0075 0 0 10 0
0.5260 0.2942 0.0058 0 0 10 0
0.5260 0.2939 0.0065 0 0 10 0
0.5320 0.2939 0.0054 0 0 10 0
0.5460 0.2935 0.0063 0 0 10 0
0.5460 0.2935 0.0063 0 0 10 0
0.5540 0.2928 0.0070 0 0 10 0
0.5480 0.2922 0.0094 0 0 10 0
0.5300 0.2916 0.0101 0 0 10 0
0.5460 0.2911 0.0125 0 0 10 0
0.5220 0.2911 0.0121 0 0 10 0
0.5340 0.2911 0.0131 0 0 10 0
0.5340 0.2911 0.0131 0 0 10 0
0.5300 0.2904 0.0137 0 0 10 0
0.5200 0.2898 0.0145 0 0 10 0
0.5360 0.2890 0.0143 0 0 10 0
0.5340 0.2885 0.0162 0 0 10 0
0.5100 0.2883 0.0168 0 0 10 0
0.5400 0.2885 0.0157 0 0 10 0
0.5400 0.2885 0.0157 0 0 10 0
0.5360 0.2884 0.0173 0 0 10 0
0.5200 0.2881 0.0177 0 0 10 0
0.5300 0.2880 0.0172 0 0 10 0
0.5300 0.2880 0.0172 0 0 10 0
0.5260 0.2861 0.0179 0 0 10 0
0.5260 0.2861 0.0179 0 0 10 0
0.5480 0.2858 0.0180 0 0 10 0
0.5440 0.2853 0.0175 0 0 10 0
0.5300 0.2849 0.0175 0 0 10 0
0.5320 0.2846 0.0183 0 0 10 0
0.5320 0.2846 0.0183 0 0 10 0
0.5280 0.2842 0.0181 0 0 10 0
0.5520 0.2837 0.0190 0 0 10 0
0.5560 0.2837 0.0188 0 0 10 0
0.5560 0.2837 0.0188 0 0 10 0
0.5380 0.2832 0.0190 0 0 10 0
0.5380 0.2832 0.0190 0 0 10 0
0.5420 0.2826 0.0187 0 0 10 0
0.5500 0.2816 0.0207 0 0 10 0
0.5420 0.2812 0.0208 0 0 10 0
0.5400 0.2805 0.0191 0 0 10 0
0.5400 0.2805 0.0191 0 0 10 0
0.5460 0.2803 0.0206 0 0 10 0
0.5280 0.2798 0.0201 0 0 0 0
0.5220 0.2781 0.0188 0 0 0 -10
0.5260 0.2761 0.0213 0 0 0 -10
0.5500 0.2751 0.0207 0 0 0 -10
0.5500 0.2751 0.0207 0 0 0 0
0.5440 0.2734 0.0215 0 0 0 -10
0.5360 0.2730 0.0181 0 0 0 -10
0.5360 0.2731 0.0168 0 0 0 0
0.5540 0.2733 0.0059 0 0 0 -10
0.5420 0.2746 0.0081 0 0 0 0
0.5440 0.2751 0.0077 0 0 10 0
0.5440 0.2738 0.0016 0 0 10 0
0.5300 0.2732 -0.0020 0 0 10 0
0.5260 0.2733 -0.0033 0 0 10 0
0.5260 0.2733 -0.0033 0 0 10 0
0.5360 0.2737 -0.0035 0 0 10 0
0.5420 0.2744 -0.0052 0 0 10 0
0.5420 0.2744 -0.0052 0 0 10 0
0.5420 0.2745 -0.0068 0 0 10 0
0.5420 0.2745 -0.0068 0 0 10 0
0.5380 0.2745 -0.0078 0 0 10 0
0.5540 0.2741 -0.0074 0 0 10 0
0.5360 0.2745 -0.0059 0 0 10 0
0.5340 0.2745 -0.0059 0 0 10 0
0.5320 0.2743 -0.0065 0 0 10 0
0.5100 0.2739 -0.0062 0 0 10 0
0.5200 0.2738 -0.0061 0 0 10 0
0.5320 0.2733 -0.0070 0 0 10 0
0.5140 0.2727 -0.0070 0 0 10 0
0.5140 0.2727 -0.0070 0 0 10 0
0.5220 0.2721 -0.0046 0 0 10 0
0.5280 0.2717 -0.0056 0 0 10 0
0.5140 0.2712 -0.0047 0 0 10 0
0.5120 0.2711 -0.0042 0 0 10 0
0.5280 0.2708 -0.0013 0 0 10 0
0.5360 0.2704 -0.0031 0 0 10 0
0.5360 0.2704 -0.0031 0 0 10 0
0.5380 0.2700 -0.0034 0 0 10 0
0.5320 0.2695 -0.0040 0 0 10 0
0.5440 0.2676 -0.0038 0 0 10 0
0.5280 0.2667 -0.0020 0 0 10 0
0.5280 0.2667 -0.0020 0 0 10 0
0.5500 0.2659 -0.0022 0 0 10 0
0.5400 0.2657 -0.0023 0 0 10 0
0.5340 0.2659 -0.0027 0 0 10 0
0.5340 0.2661 -0.0034 0 0 10 0
0.5540 0.2655 -0.0052 0 0 10 0
0.5360 0.2651 -0.0052 0 0 10 0
0.5200 0.2644 -0.0035 0 0 10 0
0.5200 0.2644 -0.0035 0 0 10 0
0.5220 0.2635 -0.0037 0 0 10 0
0.5420 0.2627 -0.0056 0 0 10 0
0.5280 0.2626 -0.0060 0 0 10 0
0.5240 0.2621 -0.0055 0 0 10 0
0.5240 0.2621 -0.0055 0 0 10 0
0.5280 0.2618 -0.0057 0 0 10 0
0.5300 0.2613 -0.0072 0 0 10 0
0.5380 0.2603 -0.0082 0 0 10 0
0.5340 0.2594 -0.0095 0 0 10 0
0.5340 0.2594 -0.0095 0 0 10 0
0.5360 0.2586 -0.0108 0 0 10 0
0.5240 0.2586 -0.0082 0 0 10 0
0.5400 0.2582 -0.0074 0 0 10 0
0.5500 0.2581 -0.0070 0 0 10 0
0.5500 0.2581 -0.0070 0 0 10 0
0.5480 0.2579 -0.0068 0 0 10 0
0.5500 0.2567 -0.0044 0 0 10 0
0.5480 0.2565 -0.0052 0 0 10 0
0.5480 0.2565 -0.0052 0 0 10 0
0.5480 0.2565 -0.0052 0 0 10 0
0.5660 0.2560 -0.0041 0 0 10 0
0.5520 0.2554 -0.0017 0 0 10 0
0.5380 0.2547 -0.0009 0 0 10 0
0.5380 0.2542 -0.0005 0 0 10 0
0.5440 0.2542 -0.0005 0 0 10 0
0.5460 0.2535 0.0012 0 0 10 0
0.5500 0.2535 0.0016 0 0 10 0
0.5340 0.2541 0.0027 0 0 10 0
0.5340 0.2542 0.0027 0 0 10 0
0.5320 0.2543 0.0037 0 0 10 0
0.5320 0.2543 0.0037 0 0 10 0
0.5280 0.2540 0.0035 0 0 10 0
0.5320 0.2537 0.0054 0 0 10 0
0.5520 0.2535 0.0058 0 0 10 0
0.5340 0.2530 0.0062 0 0 10 0
0.5240 0.2523 0.0082 0 0 10 0
0.5240 0.2518 0.0088 0 0 10 0
0.5240 0.2512 0.0081 0 0 10 0
0.5300 0.2512 0.0081 0 0 10 0
0.5480 0.2504 0.0078 0 0 10 0
0.5220 0.2502 0.0076 0 0 10 0
0.5520 0.2496 0.0078 0 0 10 0
0.5520 0.2496 0.0078 0 0 10 0
0.5360 0.2484 0.0058 0 0 10 0
0.5360 0.2484 0.0058 0 0 10 0
0.5080 0.2474 0.0075 0 0 10 0
0.5420 0.2469 0.0074 0 0 10 0
0.5560 0.2466 0.0029 0 0 10 0
0.5400 0.2465 0.0020 0 0 10 0
0.5400 0.2465 0.0020 0 0 10 0
0.5720 0.2455 0.0053 0 0 10 0
0.5280 0.2448 0.0064 0 0 10 0
0.5280 0.2448 0.0064 0 0 10 0
0.5360 0.2437 0.0094 0 0 10 0
0.5440 0.2437 0.0094 0 0 10 0
0.5440 0.2440 0.0093 0 0 10 0
0.5180 0.2438 0.0092 0 0 10 0
0.5260 0.2438 0.0103 0 0 10 0
0.5420 0.2437 0.0104 0 0 10 0
0.5360 0.2435 0.0085 0 0 10 0
0.5520 0.2431 0.0088 0 0 10 0
0.5380 0.2428 0.0086 0 0 10 0
0.5400 0.2425 0.0087 0 0 10 0
0.5460 0.2426 0.0092 0 0 10 0
0.5440 0.2423 0.0085 0 0 10 0
0.5440 0.2423 0.0085 0 0 10 0
0.5500 0.2414 0.0087 0 0 10 0
0.5320 0.2406 0.0084 0 0 10 0
0.5260 0.2400 0.0081 0 0 10 0
0.5260 0.2390 0.0087 0 0 10 0
0.5400 0.2388 0.0084 0 0 10 0
0.5460 0.2389 0.0048 0 0 10 0
0.5460 0.2392 0.0049 0 0 10 0
0.5320 0.2388 0.0044 0 0 10 0
0.5320 0.2384 0.0039 0 0 10 0
0.5260 0.2384 0.0039 0 0 10 0
0.5260 0.2368 0.0029 0 0 10 0
0.5420 0.2368 0.0029 0 0 10 0
0.5540 0.2358 0.0035 0 0 10 0
0.5540 0.2358 0.0035 0 0 10 0
0.5340 0.2354 0.0032 0 0 10 0
0.5340 0.2354 0.0032 0 0 10 0
0.5460 0.2351 0.0033 0 0 10 0
0.5300 0.2340 0.0034 0 0 10 0
0.5300 0.2328 0.0026 0 0 10 0
0.5380 0.2328 0.0026 0 0 10 0
0.5320 0.2321 0.0015 0 0 10 0
0.5400 0.2318 0.0020 0 0 10 0
0.5260 0.2317 -0.0009 0 0 10 0
0.5440 0.2317 -0.0025 0 0 10 0
0.5440 0.2317 -0.0025 0 0 10 0
0.5500 0.2313 -0.0021 0 0 10 0
0.5340 0.2311 -0.0027 0 0 10 0
0.5480 0.2307 -0.0028 0 0 10 0
0.5460 0.2299 -0.0029 0 0 10 0
0.5600 0.2290 -0.0051 0 0 10 0
0.5380 0.2287 -0.0050 0 0 10 0
0.5380 0.2287 -0.0050 0 0 10 0
0.5440 0.2284 -0.0059 0 0 10 0
0.5360 0.2283 -0.0063 0 0 10 0
0.5500 0.2279 -0.0085 0 0 10 0
0.5340 0.2271 -0.0080 0 0 10 0
0.5340 0.2271 -0.0080 0 0 10 0
0.5240 0.2262 -0.0014 0 0 10 0
0.5320 0.2258 -0.0017 0 0 10 0
0.5440 0.2259 -0.0049 0 0 10 0
0.5280 0.2255 -0.0053 0 0 10 0
0.5420 0.2254 -0.0060 0 0 10 0
0.5520 0.2250 -0.0060 0 0 10 0
0.5520 0.2250 -0.0060 0 0 10 0
0.5580 0.2250 -0.0077 0 0 10 0
0.5500 0.2248 -0.0084 0 0 10 0
0.5420 0.2243 -0.0083 0 0 10 0
0.5560 0.2228 -0.0104 0 0 10 0
0.5560 0.2228 -0.0104 0 0 10 0
0.5360 0.2219 -0.0112 0 0 10 0
0.5380 0.2213 -0.0107 0 0 10 0
0.5400 0.2211 -0.0103 0 0 10 0
0.5400 0.2209 -0.0110 0 0 10 0
0.5400 0.2209 -0.0110 0 0 10 0
0.5520 0.2210 -0.0107 0 0 10 0
0.5520 0.2210 -0.0107 0 0 10 0
0.5420 0.2204 -0.0101 0 0 10 0
0.5480 0.2198 -0.0096 0 0 10 0
0.5560 0.2192 -0.0093 0 0 10 0
0.5280 0.2183 -0.0091 0 0 10 0
0.5220 0.2182 -0.0105 0 0 10 0
0.5240 0.2179 -0.0095 0 0 10 0
0.5180 0.2180 -0.0093 0 0 10 0
0.5440 0.2179 -0.0084 0 0 10 0
0.5340 0.2176 -0.0076 0 0 10 0
0.5300 0.2170 -0.0064 0 0 10 0
0.5440 0.2164 -0.0061 0 0 10 0
0.5320 0.2157 -0.0066 0 0 10 0
0.5200 0.2156 -0.0098 0 0 10 0
0.5340 0.2152 -0.0087 0 0 10 0
0.5240 0.2151 -0.0084 0 0 10 0
0.5420 0.2141 -0.0108 0 0 10 0
0.5340 0.2133 -0.0097 0 0 10 0
0.5340 0.2133 -0.0097 0 0 10 0
0.5340 0.2130 -0.0101 0 0 10 0
0.5420 0.2125 -0.0063 0 0 10 0
0.5420 0.2125 -0.0063 0 0 10 0
0.5460 0.2122 -0.0067 0 0 10 0
0.5420 0.2116 -0.0077 0 0 10 0
0.5380 0.2115 -0.0070 0 0 10 0
0.5340 0.2113 -0.0060 0 0 10 0
0.5460 0.2113 -0.0061 0 0 10 0
0.5460 0.2113 -0.0061 0 0 10 0
0.5440 0.2112 -0.0075 0 0 10 0
0.5500 0.2115 -0.0068 0 0 10 0
0.5560 0.2114 -0.0086 0 0 10 0
0.5480 0.2112 -0.0085 0 0 10 0
0.5480 0.2112 -0.0085 0 0 10 0
0.5200 0.2105 -0.0065 0 0 10 0
0.5320 0.2097 -0.0067 0 0 10 0
0.5500 0.2087 -0.0056 0 0 10 0
0.5640 0.2082 -0.0065 0 0 10 0
0.5640 0.2082 -0.0065 0 0 10 0
0.5440 0.2080 -0.0060 0 0 10 0
0.5300 0.2081 -0.0005 0 0 10 0
0.5440 0.2082 -0.0008 0 0 10 0
0.5560 0.2079 -0.0026 0 0 10 0
0.5520 0.2071 -0.0034 0 0 10 0
0.5420 0.2063 -0.0030 0 0 10 0
0.5420 0.2063 -0.0030 0 0 10 0
0.5380 0.2060 -0.0033 0 0 10 0
0.5400 0.2055 -0.0051 0 0 10 0
0.5600 0.2051 -0.0045 0 0 10 0
0.5380 0.2048 -0.0025 0 0 10 0
0.5380 0.2048 -0.0025 0 0 10 0
0.5200 0.2044 -0.0024 0 0 10 0
0.5440 0.2037 -0.0026 0 0 10 0
0.5440 0.2034 -0.0033 0 0 10 0
0.5500 0.2028 -0.0015 0 0 10 0
0.5440 0.2027 -0.0015 0 0 10 0
0.5440 0.2027 -0.0015 0 0 10 0
0.5580 0.2024 -0.0002 0 0 10 0
0.5600 0.2023 0.0001 0 0 10 0
0.5600 0.2023 0.0001 0 0 10 0
0.5500 0.2017 0.0001 0 0 10 0
0.5640 0.2010 0.0014 0 0 10 0
0.5540 0.2010 0.0014 0 0 10 0
0.5520 0.2003 0.0004 0 0 10 0
0.5520 0.2003 0.0004 0 0 10 0
0.5340 0.1998 0.0004 0 0 10 0
0.5700 0.1988 0.0038 0 0 10 0
0.5620 0.1982 0.0035 0 0 10 0
0.5460 0.1978 0.0034 0 0 10 0
0.5640 0.1973 0.0041 0 0 10 0
0.5560 0.1973 0.0042 0 0 10 0
0.5360 0.1974 0.0040 0 0 10 0
0.5520 0.1971 0.0040 0 0 10 0
0.5560 0.1966 0.0054 0 0 10 0
0.5400 0.1964 0.0056 0 0 10 0
0.5460 0.1955 0.0051 0 0 10 0
0.5640 0.1946 0.0053 0 0 10 0
0.5660 0.1939 0.0060 0 0 10 0
0.5820 0.1937 0.0058 0 0 10 0
0.5640 0.1941 0.0040 0 0 10 0
0.5720 0.1940 0.0043 0 0 10 0
0.5500 0.1929 0.0045 0 0 10 0
0.5420 0.1924 0.0027 0 0 10 0
0.5600 0.1914 0.0026 0 0 10 0
0.5700 0.1906 0.0038 0 0 10 0
0.5440 0.1908 0.0037 0 0 10 0
0.5600 0.1911 0.0017 0 0 10 0
0.5600 0.1911 0.0017 0 0 10 0
0.5780 0.1913 0.0016 0 0 10 0
0.5600 0.1912 0.0016 0 0 10 0
0.5620 0.1906 -0.0031 0 0 10 0
0.5640 0.1900 -0.0036 0 0 10 0
0.5720 0.1900 -0.0026 0 0 10 0
0.5720 0.1900 -0.0026 0 0 10 0
0.5760 0.1900 -0.0009 0 0 10 0
0.5700 0.1897 -0.0000 0 0 10 0
0.5700 0.1897 -0.0000 0 0 10 0
0.5760 0.1891 0.0009 0 0 10 0
0.5640 0.1885 -0.0002 0 0 10 0
0.5680 0.1880 0.0008 0 0 10 0
0.5540 0.1875 0.0029 0 0 10 0
0.5800 0.1872 0.0033 0 0 10 0
0.5800 0.1872 0.0033 0 0 10 0
0.5560 0.1860 0.0028 0 0 10 0
0.5640 0.1855 0.0038 0 0 10 0
0.5660 0.1850 0.0039 0 0 10 0
0.5660 0.1850 0.0039 0 0 10 0
0.5640 0.1846 0.0030 0 0 10 0
0.5780 0.1841 0.0049 0 0 10 0
0.5780 0.1841 0.0049 0 0 10 0
0.5820 0.1834 0.0047 0 0 10 0
0.5720 0.1834 0.0043 0 0 10 0
0.5720 0.1834 0.0043 0 0 10 0
0.5820 0.1832 0.0044 0 0 10 0
0.5800 0.1830 0.0030 0 0 10 0
0.5500 0.1827 0.0022 0 0 10 0
0.5500 0.1823 0.0038 0 0 10 0
0.5780 0.1821 0.0040 0 0 10 0
0.5780 0.1821 0.0040 0 0 10 0
0.5720 0.1819 0.0029 0 0 10 0
0.5520 0.1810 0.0044 0 0 10 0
0.5520 0.1810 0.0044 0 0 10 0
0.5680 0.1801 0.0044 0 0 10 0
0.5760 0.1794 0.0048 0 0 10 0
0.5600 0.1789 0.0046 0 0 10 0
0.5620 0.1787 0.0058 0 0 10 0
0.5620 0.1787 0.0058 0 0 10 0
0.5740 0.1778 0.0061 0 0 10 0
0.5760 0.1772 0.0133 0 0 10 0
0.5920 0.1773 0.0135 0 0 10 0
0.5660 0.1771 0.0141 0 0 10 0
0.5820 0.1765 0.0143 0 0 10 0
0.5480 0.1760 0.0129 0 0 10 0
0.5780 0.1758 0.0130 0 0 10 0
0.5640 0.1744 0.0061 0 0 10 0
0.5640 0.1744 0.0061 0 0 10 0
0.5860 0.1737 0.0048 0 0 10 0
0.5640 0.1736 0.0054 0 0 10 0
0.5660 0.1735 0.0032 0 0 10 0
0.5800 0.1737 0.0036 0 0 10 0
0.5640 0.1734 0.0014 0 0 10 0
0.5640 0.1734 0.0014 0 0 10 0
0.5500 0.1721 0.0013 0 0 10 0
0.5500 0.1721 0.0013 0 0 10 0
0.5680 0.1717 0.0027 0 0 10 0
0.5660 0.1715 0.0028 0 0 10 0
0.5440 0.1711 0.0045 0 0 10 0
0.5700 0.1706 0.0044 0 0 10 0
0.5680 0.1706 0.0050 0 0 10 0
0.5660 0.1706 0.0047 0 0 10 0
0.5660 0.1706 0.0047 0 0 10 0
0.5620 0.1700 0.0059 0 0 10 0
0.5740 0.1693 0.0057 0 0 10 0
0.5700 0.1688 0.0062 0 0 10 0
0.5700 0.1688 0.0062 0 0 10 0
0.5620 0.1683 0.0057 0 0 10 0
0.5660 0.1682 0.0055 0 0 10 0
0.5620 0.1685 0.0057 0 0 10 0
0.5520 0.1687 0.0086 0 0 10 0
0.5560 0.1685 0.0083 0 0 10 0
0.5700 0.1682 0.0081 0 0 10 0
0.5700 0.1682 0.0081 0 0 10 0
0.5700 0.1669 0.0074 0 0 10 0
0.5740 0.1661 0.0077 0 0 10 0
0.5640 0.1658 0.0076 0 0 10 0
0.5640 0.1655 0.0073 0 0 10 0
0.5760 0.1654 0.0090 0 0 10 0
0.5440 0.1650 0.0101 0 0 10 0
0.5440 0.1650 0.0101 0 0 10 0
0.5660 0.1641 0.0091 0 0 10 0
0.5560 0.1633 0.0093 0 0 10 0
0.5560 0.1628 0.0105 0 0 10 0
0.5640 0.1632 0.0086 0 0 10 0
0.5600 0.1631 0.0083 0 0 10 0
0.5660 0.1625 0.0089 0 0 10 0
0.5660 0.1625 0.0089 0 0 10 0
0.5720 0.1616 0.0086 0 0 10 0
0.5740 0.1605 0.0090 0 0 10 0
0.5700 0.1596 0.0088 0 0 10 0
0.5540 0.1593 0.0118 0 0 10 0
0.5540 0.1593 0.0118 0 0 10 0
0.5620 0.1593 0.0114 0 0 10 0
0.5620 0.1594 0.0142 0 0 10 0
0.5660 0.1591 0.0139 0 0 10 0
0.5640 0.1586 0.0141 0 0 10 0
0.5640 0.1586 0.0141 0 0 10 0
0.5800 0.1581 0.0136 0 0 10 0
0.5780 0.1575 0.0130 0 0 10 0
0.5580 0.1572 0.0134 0 0 10 0
0.5660 0.1568 0.0117 0 0 10 0
0.5580 0.1563 0.0140 0 0 10 0
0.5580 0.1563 0.0140 0 0 10 0
0.5600 0.1558 0.0147 0 0 10 0
0.5860 0.1553 0.0159 0 0 10 0
0.5680 0.1553 0.0150 0 0 10 0
0.5620 0.1549 0.0152 0 0 10 0
0.5660 0.1546 0.0155 0 0 10 0
0.5780 0.1544 0.0163 0 0 10 0
0.5780 0.1541 0.0150 0 0 10 0
0.5860 0.1537 0.0145 0 0 10 0
0.5920 0.1531 0.0145 0 0 10 0
0.5880 0.1526 0.0141 0 0 10 0
0.5520 0.1521 0.0114 0 0 10 0
0.5760 0.1519 0.0122 0 0 10 0
0.5760 0.1515 0.0125 0 0 10 0
0.5600 0.1512 0.0121 0 0 10 0
0.5780 0.1508 0.0122 0 0 10 0
0.5660 0.1506 0.0135 0 0 10 0
0.5780 0.1505 0.0131 0 0 10 0
0.5780 0.1505 0.0131 0 0 10 0
0.5780 0.1502 0.0125 0 0 10 0
0.5780 0.1497 0.0119 0 0 10 0
0.5800 0.1494 0.0127 0 0 10 0
0.5900 0.1488 0.0124 0 0 10 0
0.5900 0.1488 0.0124 0 0 10 0
0.5860 0.1482 0.0116 0 0 10 0
0.5880 0.1479 0.0115 0 0 10 0
0.5780 0.1477 0.0119 0 0 10 0
0.5660 0.1476 0.0118 0 0 10 0
0.5880 0.1479 0.0097 0 0 10 0
0.5760 0.1475 0.0095 0 0 10 0
0.5760 0.1475 0.0095 0 0 10 0
0.5900 0.1469 0.0090 0 0 10 0
0.5720 0.1452 0.0070 0 0 10 0
0.5700 0.1445 0.0078 0 0 10 0
0.5840 0.1444 0.0085 0 0 10 0
0.5840 0.1444 0.0085 0 0 10 0
0.5900 0.1435 0.0064 0 0 10 0
0.5760 0.1433 0.0061 0 0 10 0
0.5780 0.1427 0.0047 0 0 10 0
0.5780 0.1427 0.0047 0 0 10 0
0.6020 0.1416 0.0024 0 0 10 0
0.6020 0.1416 0.0024 0 0 10 0
0.5960 0.1411 0.0024 0 0 10 0
0.5760 0.1410 0.0017 0 0 10 0
0.6080 0.1410 0.0023 0 0 10 0
0.5900 0.1406 0.0023 0 0 10 0
0.5900 0.1406 0.0023 0 0 10 0
0.5860 0.1399 0.0032 0 0 10 0
0.5940 0.1391 0.0028 0 0 10 0
0.5980 0.1388 0.0014 0 0 10 0
0.6000 0.1382 0.0024 0 0 10 0
0.5920 0.1379 0.0024 0 0 10 0
0.5920 0.1379 0.0024 0 0 10 0
0.5940 0.1379 0.0024 0 0 10 0
0.5800 0.1379 0.0021 0 0 10 0
0.6220 0.1381 0.0006 0 0 10 0
0.6220 0.1381 0.0006 0 0 10 0
0.6120 0.1375 -0.0011 0 0 10 0
0.6120 0.1375 -0.0011 0 0 10 0
0.5960 0.1370 -0.0014 0 0 10 0
0.5960 0.1363 -0.0006 0 0 10 0
0.5900 0.1361 -0.0017 0 0 10 0
0.5900 0.1361 -0.0017 0 0 10 0
0.5800 0.1359 -0.0019 0 0 10 0
0.6060 0.1359 -0.0008 0 0 10 0
0.5920 0.1356 -0.0007 0 0 10 0
0.6020 0.1352 -0.0027 0 0 10 0
0.6020 0.1352 -0.0027 0 0 10 0
0.6000 0.1335 0.0017 0 0 10 0
0.6000 0.1335 0.0017 0 0 10 0
0.6160 0.1330 0.0015 0 0 10 0
0.6040 0.1319 0.0016 0 0 10 0
0.6080 0.1319 0.0016 0 0 10 0
0.5880 0.1315 0.0021 0 0 10 0
0.6120 0.1306 -0.0007 0 0 10 0
0.6040 0.1302 -0.0008 0 0 10 0
0.6020 0.1297 0.0004 0 0 10 0
0.6200 0.1293 -0.0031 0 0 10 0
0.6200 0.1293 -0.0031 0 0 10 0
0.5860 0.1290 -0.0030 0 0 10 0
0.6260 0.1290 -0.0027 0 0 10 0
0.6180 0.1282 -0.0026 0 0 10 0
0.6180 0.1282 -0.0026 0 0 10 0
0.5960 0.1273 -0.0021 0 0 10 0
0.6140 0.1268 -0.0017 0 0 10 0
0.6200 0.1266 0.0002 0 0 10 0
0.6160 0.1265 0.0002 0 0 10 0
0.6160 0.1265 0.0002 0 0 10 0
0.6160 0.1254 0.0012 0 0 10 0
0.6080 0.1246 0.0020 0 0 10 0
0.6080 0.1246 0.0020 0 0 10 0
0.6100 0.1228 0.0015 0 0 10 0
0.6100 0.1228 0.0015 0 0 10 0
0.6300 0.1225 0.0025 0 0 10 0
0.6220 0.1226 0.0025 0 0 10 0
0.6060 0.1230 0.0019 0 0 10 0
0.6060 0.1230 0.0019 0 0 10 0
0.6240 0.1229 0.0018 0 0 10 0
0.6200 0.1218 0.0041 0 0 10 0
0.6040 0.1218 0.0041 0 0 10 0
0.6220 0.1209 0.0041 0 0 10 0
0.6220 0.1209 0.0041 0 0 10 0
0.6000 0.1204 0.0039 0 0 10 0
0.6100 0.1204 0.0039 0 0 10 0
0.6260 0.1198 0.0038 0 0 10 0
0.6040 0.1196 0.0035 0 0 10 0
0.6120 0.1190 0.0040 0 0 10 0
0.6120 0.1190 0.0040 0 0 10 0
0.6200 0.1180 0.0033 0 0 10 0
0.6100 0.1179 0.0036 0 0 10 0
0.6100 0.1175 0.0039 0 0 10 0
0.6080 0.1178 0.0058 0 0 10 0
0.6180 0.1175 0.0053 0 0 10 0
0.6180 0.1175 0.0053 0 0 10 0
0.6140 0.1171 0.0052 0 0 10 0
0.6220 0.1166 0.0063 0 0 10 0
0.6340 0.1159 0.0064 0 0 10 0
0.6340 0.1159 0.0064 0 0 10 0
0.6180 0.1150 0.0061 0 0 10 0
0.6040 0.1146 0.0061 0 0 10 0
0.6080 0.1143 0.0063 0 0 10 0
0.6220 0.1135 0.0064 0 0 10 0
0.6220 0.1135 0.0064 0 0 10 0
0.6340 0.1124 0.0060 0 0 10 0
0.6340 0.1124 0.0060 0 0 10 0
0.6120 0.1118 0.0076 0 0 10 0
0.6160 0.1118 0.0060 0 0 10 0
0.6380 0.1116 0.0061 0 0 10 0
0.6300 0.1113 0.0060 0 0 10 0
0.6300 0.1113 0.0060 0 0 10 0
0.6240 0.1098 0.0056 0 0 10 0
0.6240 0.1098 0.0056 0 0 10 0
0.6340 0.1091 0.0060 0 0 10 0
0.6340 0.1091 0.0060 0 0 10 0
0.6000 0.1094 0.0061 0 0 10 0
0.6000 0.1094 0.0061 0 0 10 0
0.6040 0.1098 0.0054 0 0 10 0
0.6160 0.1098 0.0059 0 0 10 0
0.5980 0.1098 0.0054 0 0 10 0
0.6160 0.1091 0.0044 0 0 10 0
0.6080 0.1084 0.0040 0 0 10 0
0.6140 0.1076 0.0033 0 0 10 0
0.6140 0.1076 0.0033 0 0 10 0
0.6240 0.1074 0.0043 0 0 10 0
0.6280 0.1072 0.0018 0 0 10 0
0.6460 0.1070 0.0018 0 0 10 0
0.6220 0.1069 0.0007 0 0 10 0
0.6220 0.1069 0.0007 0 0 10 0
0.6200 0.1057 0.0000 0 0 10 0
0.6200 0.1057 0.0000 0 0 10 0
0.6320 0.1051 -0.0005 0 0 10 0
0.5980 0.1049 0.0002 0 0 10 0
0.6140 0.1043 0.0004 0 0 10 0
0.6140 0.1043 0.0004 0 0 10 0
0.6000 0.1038 0.0006 0 0 10 0
0.6060 0.1036 0.0015 0 0 10 0
0.6460 0.1029 0.0019 0 0 10 0
0.6340 0.1024 -0.0013 0 0 10 0
0.6340 0.1024 -0.0013 0 0 10 0
0.6420 0.1016 -0.0029 0 0 10 0
0.6420 0.1016 -0.0029 0 0 10 0
0.6180 0.1014 -0.0031 0 0 10 0
0.6240 0.1013 -0.0034 0 0 10 0
0.6140 0.1000 0.0008 0 0 10 0
0.6140 0.1000 0.0008 0 0 10 0
0.6340 0.0994 0.0009 0 0 10 0
0.6060 0.0985 0.0002 0 0 10 0
0.6200 0.0985 -0.0000 0 0 10 0
0.6140 0.0984 0.0008 0 0 10 0
0.6120 0.0979 -0.0015 0 0 10 0
0.6120 0.0979 -0.0015 0 0 10 0
0.6300 0.0974 -0.0016 0 0 10 0
0.6120 0.0965 -0.0000 0 0 10 0
0.6120 0.0965 -0.0000 0 0 10 0
0.6220 0.0958 -0.0021 0 0 10 0
0.6060 0.0952 -0.0022 0 0 10 0
0.6100 0.0947 -0.0045 0 0 10 0
0.6500 0.0946 -0.0043 0 0 10 0
0.6180 0.0939 -0.0015 0 0 10 0
0.6320 0.0936 -0.0018 0 0 10 0
0.6320 0.0936 -0.0018 0 0 10 0
0.6180 0.0931 -0.0022 0 0 10 0
0.6440 0.0927 -0.0028 0 0 10 0
0.6380 0.0927 -0.0040 0 0 10 0
0.6420 0.0925 -0.0038 0 0 10 0
0.6420 0.0925 -0.0038 0 0 10 0
0.6220 0.0921 -0.0065 0 0 10 0
0.6080 0.0916 -0.0069 0 0 10 0
0.6040 0.0912 -0.0065 0 0 10 0
0.6100 0.0906 -0.0072 0 0 10 0
0.6320 0.0902 -0.0105 0 0 10 0
0.6140 0.0900 -0.0114 0 0 10 0
0.6140 0.0900 -0.0114 0 0 10 0
0.6100 0.0899 -0.0071 0 0 10 0
0.6380 0.0894 -0.0078 0 0 10 0
0.6400 0.0892 -0.0095 0 0 10 0
0.6300 0.0885 -0.0098 0 0 10 0
0.6300 0.0885 -0.0098 0 0 10 0
0.6080 0.0878 -0.0063 0 0 10 0
0.6160 0.0873 -0.0067 0 0 10 0
0.6160 0.0870 -0.0098 0 0 10 0
0.6240 0.0865 -0.0107 0 0 10 0
0.6220 0.0861 -0.0110 0 0 10 0
0.6220 0.0861 -0.0110 0 0 10 0
0.6060 0.0854 -0.0145 0 0 10 0
0.6280 0.0852 -0.0139 0 0 10 0
0.6260 0.0845 -0.0122 0 0 10 0
0.6300 0.0840 -0.0118 0 0 10 0
0.6060 0.0837 -0.0141 0 0 10 0
0.6060 0.0837 -0.0141 0 0 10 0
0.6220 0.0833 -0.0134 0 0 10 0
0.6200 0.0831 -0.0156 0 0 10 0
0.6200 0.0831 -0.0156 0 0 10 0
0.6240 0.0823 -0.0149 0 0 10 0
0.6240 0.0823 -0.0149 0 0 10 0
0.5960 0.0820 -0.0157 0 0 10 0
0.6300 0.0816 -0.0148 0 0 10 0
0.6180 0.0814 -0.0116 0 0 10 0
0.6180 0.0813 -0.0117 0 0 10 0
0.6180 0.0813 -0.0117 0 0 10 0
0.6220 0.0810 -0.0108 0 0 10 0
0.6360 0.0807 -0.0104 0 0 10 0
0.6240 0.0802 -0.0098 0 0 10 0
0.6060 0.0794 -0.0078 0 0 10 0
0.6060 0.0794 -0.0078 0 0 10 0
0.6240 0.0792 -0.0108 0 0 10 0
0.6180 0.0789 -0.0106 0 0 10 0
0.6220 0.0788 -0.0082 0 0 10 0
0.6280 0.0787 -0.0095 0 0 10 0
0.6280 0.0787 -0.0095 0 0 10 0
0.6360 0.0781 -0.0105 0 0 10 0
0.6160 0.0781 -0.0121 0 0 10 0
0.6160 0.0781 -0.0121 0 0 10 0
0.6340 0.0778 -0.0130 0 0 10 0
0.6300 0.0773 -0.0125 0 0 10 0
0.6260 0.0770 -0.0128 0 0 10 0
0.6260 0.0770 -0.0128 0 0 10 0
0.6260 0.0759 -0.0119 0 0 0 0
0.6240 0.0722 -0.0131 0 0 0 10
0.6320 0.0713 -0.0117 0 0 0 10
0.6200 0.0705 -0.0130 0 0 0 10
0.6320 0.0699 -0.0125 0 0 0 0
0.6220 0.0694 -0.0111 0 0 0 10
0.6420 0.0683 -0.0073 0 0 0 10
0.6420 0.0683 -0.0073 0 0 0 0
0.6400 0.0686 -0.0036 0 0 0 10
0.6380 0.0679 -0.0045 0 0 0 10
0.6480 0.0671 -0.0018 0 0 0 0
0.6480 0.0696 0.0028 0 0 10 0
0.6680 0.0683 0.0095 0 0 10 0
0.6280 0.0695 0.0111 0 0 10 0
0.6280 0.0695 0.0111 0 0 10 0
0.6400 0.0701 0.0132 0 0 10 0
0.6440 0.0696 0.0139 0 0 10 0
0.6380 0.0687 0.0176 0 0 10 0
0.6380 0.0688 0.0163 0 0 10 0
0.6380 0.0688 0.0163 0 0 10 0
0.6420 0.0691 0.0157 0 0 10 0
0.6360 0.0687 0.0157 0 0 10 0
0.6340 0.0687 0.0157 0 0 10 0
0.6340 0.0677 0.0151 0 0 10 0
0.6580 0.0674 0.0166 0 0 10 0
0.6580 0.0674 0.0166 0 0 10 0
0.6500 0.0671 0.0142 0 0 10 0
0.6380 0.0670 0.0135 0 0 10 0
0.6440 0.0670 0.0144 0 0 10 0
0.6440 0.0670 0.0144 0 0 10 0
0.6280 0.0667 0.0135 0 0 10 0
0.6280 0.0656 0.0130 0 0 10 0
0.6160 0.0648 0.0131 0 0 10 0
0.6160 0.0648 0.0131 0 0 10 0
0.6160 0.0644 0.0117 0 0 10 0
0.6160 0.0644 0.0117 0 0 10 0
0.6260 0.0648 0.0099 0 0 0 0
0.6420 0.0642 0.0110 0 0 0 -10
0.6540 0.0624 0.0104 0 0 0 0
0.6500 0.0597 0.0048 0 0 0 -10
0.6300 0.0597 0.0017 0 0 0 -10
0.6300 0.0597 0.0017 0 0 0 0
0.6360 0.0597 0.0029 0 0 10 0
0.6540 0.0600 0.0017 0 0 10 0
0.6500 0.0598 0.0006 0 0 10 0
0.6560 0.0595 -0.0021 0 0 10 0
0.6560 0.0595 -0.0021 0 0 10 0
0.6420 0.0589 -0.0023 0 0 10 0
0.6400 0.0587 -0.0017 0 0 10 0
0.6280 0.0594 -0.0017 0 0 10 0
0.6280 0.0594 -0.0017 0 0 10 0
0.6460 0.0596 -0.0047 0 0 10 0
0.6540 0.0601 -0.0044 0 0 10 0
0.6300 0.0606 -0.0049 0 0 10 0
0.6500 0.0609 -0.0046 0 0 10 0
0.6400 0.0606 -0.0052 0 0 10 0
0.6340 0.0606 -0.0047 0 0 10 0
0.6340 0.0606 -0.0047 0 0 10 0
0.6600 0.0599 -0.0046 0 0 10 0
0.6680 0.0592 -0.0041 0 0 10 0
0.6480 0.0585 -0.0050 0 0 10 0
0.6400 0.0578 -0.0039 0 0 10 0
0.6560 0.0568 -0.0037 0 0 10 0
0.6600 0.0562 -0.0031 0 0 10 0
0.6480 0.0555 -0.0023 0 0 10 0
0.6580 0.0556 -0.0029 0 0 10 0
0.6580 0.0556 -0.0029 0 0 10 0
0.6520 0.0554 -0.0021 0 0 10 0
0.6560 0.0557 -0.0045 0 0 10 0
0.6500 0.0555 -0.0058 0 0 10 0
0.6680 0.0555 -0.0019 0 0 10 0
0.6520 0.0551 -0.0023 0 0 10 0
0.6520 0.0548 -0.0027 0 0 10 0
0.6520 0.0548 -0.0027 0 0 10 0
0.6640 0.0542 -0.0029 0 0 10 0
0.6540 0.0539 -0.0037 0 0 10 0
0.6560 0.0544 -0.0041 0 0 10 0
0.6560 0.0540 -0.0038 0 0 10 0
0.6700 0.0534 -0.0036 0 0 10 0
0.6700 0.0534 -0.0036 0 0 10 0
0.6660 0.0526 -0.0046 0 0 10 0
0.6620 0.0522 -0.0039 0 0 10 0
0.6680 0.0515 -0.0041 0 0 10 0
0.6680 0.0509 -0.0034 0 0 10 0
0.6660 0.0509 -0.0034 0 0 10 0
0.6540 0.0506 -0.0038 0 0 10 0
0.6600 0.0500 -0.0031 0 0 10 0
0.6700 0.0494 -0.0014 0 0 10 0
0.6680 0.0491 -0.0006 0 0 10 0
0.6740 0.0488 -0.0052 0 0 10 0
0.6740 0.0488 -0.0052 0 0 10 0
0.6620 0.0487 -0.0056 0 0 10 0
0.6600 0.0486 -0.0060 0 0 10 0
0.6860 0.0483 -0.0054 0 0 10 0
0.6660 0.0474 -0.0054 0 0 10 0
0.6660 0.0474 -0.0054 0 0 10 0
0.6820 0.0464 -0.0024 0 0 10 0
0.6680 0.0458 -0.0023 0 0 10 0
0.6700 0.0455 -0.0011 0 0 10 0
0.6700 0.0455 -0.0011 0 0 10 0
0.6800 0.0451 -0.0007 0 0 10 0
0.6980 0.0446 0.0016 0 0 10 0
0.6840 0.0440 0.0018 0 0 10 0
0.6760 0.0430 0.0012 0 0 10 0
0.6640 0.0420 0.0010 0 0 10 0
0.6640 0.0420 0.0010 0 0 10 0
0.6500 0.0413 0.0025 0 0 10 0
0.6520 0.0410 0.0025 0 0 10 0
0.6860 0.0411 0.0024 0 0 10 0
0.6740 0.0411 0.0024 0 0 10 0
0.6740 0.0411 0.0024 0 0 10 0
0.6620 0.0403 0.0028 0 0 10 0
0.6600 0.0395 0.0014 0 0 10 0
0.6720 0.0389 0.0011 0 0 10 0
0.6720 0.0385 0.0002 0 0 10 0
0.6940 0.0381 0.0004 0 0 10 0
0.6940 0.0381 0.0004 0 0 10 0
0.6760 0.0376 -0.0004 0 0 10 0
0.6780 0.0372 0.0000 0 0 10 0
0.6760 0.0370 0.0007 0 0 10 0
0.6740 0.0367 0.0008 0 0 10 0
0.6800 0.0364 0.0014 0 0 10 0
0.6680 0.0362 0.0018 0 0 10 0
0.6680 0.0362 0.0018 0 0 10 0
0.6800 0.0350 0.0046 0 0 10 0
0.6780 0.0342 0.0048 0 0 10 0
0.6600 0.0340 0.0067 0 0 10 0
0.6600 0.0340 0.0067 0 0 10 0
0.6640 0.0342 0.0055 0 0 10 0
0.6880 0.0342 0.0055 0 0 10 0
0.6500 0.0343 0.0045 0 0 10 0
0.6940 0.0340 0.0049 0 0 10 0
0.6640 0.0337 0.0054 0 0 10 0
0.6640 0.0337 0.0054 0 0 10 0
0.7000 0.0329 0.0052 0 0 10 0
0.6880 0.0320 0.0047 0 0 10 0
0.6840 0.0318 0.0054 0 0 10 0
0.6580 0.0313 0.0026 0 0 10 0
0.6760 0.0310 0.0031 0 0 10 0
0.6620 0.0310 0.0017 0 0 10 0
0.6620 0.0310 0.0017 0 0 10 0
0.6720 0.0309 0.0021 0 0 10 0
0.6820 0.0302 0.0023 0 0 10 0
0.6620 0.0297 0.0063 0 0 10 0
0.6620 0.0297 0.0063 0 0 10 0
0.6660 0.0288 0.0110 0 0 10 0
0.6660 0.0288 0.0110 0 0 10 0
0.6580 0.0285 0.0111 0 0 10 0
0.6640 0.0282 0.0134 0 0 10 0
0.6720 0.0282 0.0141 0 0 10 0
0.6720 0.0282 0.0141 0 0 10 0
0.7040 0.0276 0.0099 0 0 10 0
0.6800 0.0266 0.0097 0 0 10 0
0.6740 0.0260 0.0103 0 0 10 0
0.6660 0.0257 0.0119 0 0 10 0
0.6580 0.0257 0.0113 0 0 10 0
0.6580 0.0253 0.0079 0 0 10 0
0.6580 0.0253 0.0079 0 0 10 0
0.6700 0.0240 0.0077 0 0 10 0
0.6720 0.0232 0.0071 0 0 10 0
0.7000 0.0226 0.0083 0 0 10 0
0.6680 0.0224 0.0075 0 0 10 0
0.6820 0.0228 0.0074 0 0 10 0
0.6820 0.0228 0.0074 0 0 10 0
0.6620 0.0224 0.0075 0 0 10 0
0.6860 0.0221 0.0076 0 0 10 0
0.6640 0.0217 0.0071 0 0 10 0
0.6760 0.0212 0.0075 0 0 10 0
0.6760 0.0212 0.0075 0 0 10 0
0.6780 0.0208 0.0079 0 0 10 0
0.6780 0.0208 0.0079 0 0 10 0
0.6660 0.0204 0.0085 0 0 10 0
0.6860 0.0198 0.0086 0 0 10 0
0.6800 0.0198 0.0115 0 0 10 0
0.6800 0.0198 0.0115 0 0 10 0
0.6740 0.0198 0.0118 0 0 10 0
0.6800 0.0196 0.0110 0 0 10 0
0.6860 0.0193 0.0106 0 0 10 0
0.6860 0.0193 0.0106 0 0 10 0
0.6820 0.0184 0.0130 0 0 10 0
0.6900 0.0180 0.0123 0 0 10 0
0.6780 0.0178 0.0123 0 0 10 0
0.6840 0.0176 0.0134 0 0 10 0
0.6840 0.0176 0.0134 0 0 10 0
0.7020 0.0171 0.0123 0 0 10 0
0.6740 0.0168 0.0127 0 0 10 0
0.6800 0.0163 0.0107 0 0 10 0
0.6660 0.0155 0.0113 0 0 10 0
0.6660 0.0155 0.0113 0 0 10 0
0.6920 0.0143 0.0110 0 0 10 0
0.6840 0.0134 0.0117 0 0 10 0
0.7000 0.0131 0.0117 0 0 10 0
0.6880 0.0131 0.0117 0 0 10 0
0.6920 0.0129 0.0113 0 0 10 0
0.6920 0.0129 0.0113 0 0 10 0
0.7020 0.0130 0.0107 0 0 10 0
0.6720 0.0128 0.0104 0 0 10 0
0.6560 0.0127 0.0086 0 0 10 0
0.6560 0.0127 0.0086 0 0 10 0
0.6880 0.0119 0.0078 0 0 10 0
0.6780 0.0108 0.0081 0 0 10 0
0.6860 0.0102 0.0081 0 0 10 0
0.7080 0.0098 0.0045 0 0 0 0
0.7180 0.0091 0.0025 0 0 10 0
0.7120 0.0058 0.0033 0 0 10 0
0.7180 0.0054 0.0015 0 0 0 0
