0.5080 0.3078 -0.0088 0 0 10 0
0.5120 0.3080 -0.0002 0 0 10 0
0.5300 0.3081 -0.0006 0 0 10 0
0.5080 0.3083 -0.0005 0 0 10 0
0.5320 0.3084 -0.0005 0 0 10 0
0.5320 0.3084 -0.0005 0 0 10 0
0.5320 0.3088 0.0007 0 0 10 0
0.5240 0.3091 0.0034 0 0 10 0
0.5240 0.3091 0.0034 0 0 10 0
0.5160 0.3090 0.0035 0 0 10 0
0.5160 0.3092 -0.0001 0 0 10 0
0.5220 0.3092 0.0001 0 0 10 0
0.5220 0.3092 0.0001 0 0 10 0
0.5200 0.3092 0.0019 0 0 10 0
0.5360 0.3095 0.0014 0 0 10 0
0.5040 0.3096 0.0012 0 0 10 0
0.5160 0.3094 0.0019 0 0 10 0
0.5160 0.3094 0.0019 0 0 10 0
0.5100 0.3090 0.0018 0 0 10 0
0.5180 0.3089 0.0025 0 0 10 0
0.5100 0.3088 0.0029 0 0 10 0
0.5300 0.3082 0.0032 0 0 10 0
0.5180 0.3075 0.0011 0 0 10 0
0.5120 0.3068 0.0011 0 0 10 0
0.5120 0.3068 0.0011 0 0 10 0
0.5440 0.3060 0.0012 0 0 10 0
0.5060 0.3050 0.0007 0 0 10 0
0.5220 0.3045 0.0002 0 0 10 0
0.5220 0.3045 0.0002 0 0 10 0
0.5280 0.3037 -0.0002 0 0 10 0
0.5280 0.3037 -0.0002 0 0 10 0
0.5220 0.3033 0.0007 0 0 10 0
0.5180 0.3034 0.0003 0 0 10 0
0.5440 0.3028 0.0007 0 0 10 0
0.5440 0.3028 0.0007 0 0 10 0
0.5240 0.3023 0.0022 0 0 10 0
0.5060 0.3015 0.0032 0 0 10 0
0.5140 0.3009 0.0023 0 0 10 0
0.5380 0.3003 0.0023 0 0 10 0
0.5160 0.3000 0.0031 0 0 10 0
0.5160 0.3000 0.0031 0 0 10 0
0.5220 0.2993 0.0032 0 0 10 0
0.5340 0.2990 0.0032 0 0 10 0
0.5320 0.2983 0.0036 0 0 10 0
0.5320 0.2980 0.0056 0 0 10 0
0.5380 0.2979 0.0033 0 0 10 0
0.5380 0.2979 0.0033 0 0 10 0
0.5360 0.2976 0.0038 0 0 10 0
0.5360 0.2973 0.0051 0 0 10 0
0.5340 0.2971 0.0035 0 0 10 0
0.5360 0.2968 0.0022 0 0 10 0
0.5440 0.2960 0.0012 0 0 10 0
0.5160 0.2954 0.0029 0 0 10 0
0.5160 0.2954 0.0029 0 0 10 0
0.5400 0.2947 0.0027 0 0 10 0
0.5200 0.2947 -0.0016 0 0 10 0
0.5280 0.2943 -0.0013 0 0 10 0
0.5460 0.2939 0.0003 0 0 10 0
0.5480 0.2932 0.0008 0 0 10 0
0.5420 0.2924 -0.0009 0 0 10 0
0.5420 0.2924 -0.0009 0 0 10 0
0.5380 0.2917 -0.0003 0 0 10 0
0.5240 0.2911 0.0014 0 0 10 0
0.5260 0.2909 0.0007 0 0 10 0
0.5260 0.2909 0.0007 0 0 10 0
0.5140 0.2906 0.0021 0 0 10 0
0.5420 0.2906 0.0021 0 0 10 0
0.5360 0.2905 0.0018 0 0 10 0
0.5180 0.2900 -0.0005 0 0 10 0
0.5520 0.2893 -0.0008 0 0 10 0
0.5400 0.2889 -0.0005 0 0 10 0
0.5400 0.2889 -0.0005 0 0 10 0
0.5260 0.2880 -0.0007 0 0 10 0
0.5220 0.2878 -0.0021 0 0 10 0
0.5380 0.2877 -0.0020 0 0 10 0
0.5400 0.2873 -0.0005 0 0 10 0
0.5240 0.2858 -0.0007 0 0 10 0
0.5240 0.2858 -0.0007 0 0 10 0
0.5280 0.2850 -0.0008 0 0 10 0
0.5280 0.2850 -0.0008 0 0 10 0
0.5500 0.2849 -0.0020 0 0 10 0
0.5200 0.2843 -0.0020 0 0 10 0
0.5420 0.2842 0.0033 0 0 10 0
0.5420 0.2842 0.0033 0 0 10 0
0.5440 0.2842 0.0036 0 0 10 0
0.5320 0.2838 0.0018 0 0 10 0
0.5380 0.2830 0.0022 0 0 10 0
0.5520 0.2823 0.0009 0 0 10 0
0.5220 0.2817 0.0009 0 0 10 0
0.5360 0.2813 -0.0001 0 0 10 0
0.5360 0.2813 -0.0001 0 0 10 0
0.5340 0.2808 -0.0004 0 0 10 0
0.5540 0.2805 0.0004 0 0 10 0
0.5420 0.2807 -0.0003 0 0 10 0
0.5440 0.2806 0.0001 0 0 10 0
0.5440 0.2806 0.0001 0 0 10 0
0.5320 0.2801 0.0000 0 0 10 0
0.5380 0.2794 0.0004 0 0 10 0
0.5320 0.2789 -0.0007 0 0 10 0
0.5320 0.2789 -0.0007 0 0 10 0
0.5480 0.2778 -0.0002 0 0 10 0
0.5400 0.2771 0.0006 0 0 10 0
0.5320 0.2771 0.0008 0 0 10 0
0.5360 0.2772 0.0006 0 0 10 0
0.5400 0.2769 0.0006 0 0 10 0
0.5640 0.2764 0.0021 0 0 10 0
0.5640 0.2764 0.0021 0 0 10 0
0.5280 0.2753 0.0019 0 0 10 0
0.5280 0.2753 0.0019 0 0 10 0
0.5180 0.2743 0.0020 0 0 10 0
0.5200 0.2742 0.0008 0 0 10 0
0.5160 0.2742 0.0001 0 0 10 0
0.5180 0.2742 0.0006 0 0 10 0
0.5280 0.2733 -0.0018 0 0 10 0
0.5280 0.2728 -0.0015 0 0 10 0
0.5280 0.2728 -0.0015 0 0 10 0
0.5440 0.2725 -0.0008 0 0 10 0
0.5440 0.2718 -0.0002 0 0 10 0
0.5500 0.2718 0.0011 0 0 10 0
0.5540 0.2717 0.0013 0 0 10 0
0.5420 0.2710 0.0008 0 0 10 0
0.5420 0.2710 0.0008 0 0 10 0
0.5280 0.2710 0.0009 0 0 10 0
0.5240 0.2705 0.0023 0 0 10 0
0.5300 0.2705 0.0026 0 0 10 0
0.5400 0.2700 0.0020 0 0 10 0
0.5400 0.2700 0.0020 0 0 10 0
0.5480 0.2684 -0.0040 0 0 10 0
0.5500 0.2679 -0.0036 0 0 10 0
0.5500 0.2679 -0.0036 0 0 10 0
0.5360 0.2679 0.0009 0 0 10 0
0.5440 0.2674 0.0015 0 0 10 0
0.5520 0.2671 0.0034 0 0 10 0
0.5480 0.2658 0.0068 0 0 10 0
0.5420 0.2653 0.0071 0 0 10 0
0.5420 0.2653 0.0071 0 0 10 0
0.5240 0.2653 0.0086 0 0 10 0
0.5240 0.2653 0.0086 0 0 10 0
0.5440 0.2654 0.0117 0 0 10 0
0.5380 0.2653 0.0118 0 0 10 0
0.5460 0.2649 0.0069 0 0 10 0
0.5380 0.2645 0.0065 0 0 10 0
0.5380 0.2645 0.0065 0 0 10 0
0.5180 0.2639 0.0071 0 0 10 0
0.5200 0.2634 0.0079 0 0 10 0
0.5240 0.2626 0.0081 0 0 10 0
0.5240 0.2622 0.0097 0 0 10 0
0.5420 0.2617 0.0099 0 0 10 0
0.5420 0.2617 0.0099 0 0 10 0
0.5400 0.2617 0.0095 0 0 10 0
0.5400 0.2617 0.0091 0 0 10 0
0.5300 0.2613 0.0088 0 0 10 0
0.5740 0.2609 0.0088 0 0 10 0
0.5620 0.2605 0.0070 0 0 10 0
0.5520 0.2600 0.0068 0 0 10 0
0.5520 0.2597 0.0079 0 0 10 0
0.5520 0.2597 0.0079 0 0 10 0
0.5420 0.2592 0.0081 0 0 10 0
0.5400 0.2590 0.0092 0 0 10 0
0.5300 0.2586 0.0096 0 0 10 0
0.5340 0.2582 0.0083 0 0 10 0
0.5340 0.2582 0.0083 0 0 10 0
0.5340 0.2576 0.0083 0 0 10 0
0.5100 0.2570 0.0081 0 0 10 0
0.5340 0.2559 0.0071 0 0 10 0
0.5340 0.2550 0.0073 0 0 10 0
0.5240 0.2547 0.0070 0 0 10 0
0.5420 0.2545 0.0070 0 0 10 0
0.5420 0.2545 0.0070 0 0 10 0
0.5140 0.2544 0.0074 0 0 10 0
0.5140 0.2541 0.0059 0 0 10 0
0.5240 0.2538 0.0056 0 0 10 0
0.5180 0.2534 0.0061 0 0 10 0
0.5460 0.2534 0.0070 0 0 10 0
0.5460 0.2529 0.0069 0 0 10 0
0.5380 0.2522 0.0090 0 0 10 0
0.5300 0.2518 0.0088 0 0 10 0
0.5320 0.2513 0.0089 0 0 10 0
0.5380 0.2506 0.0091 0 0 10 0
0.5380 0.2506 0.0091 0 0 10 0
0.5560 0.2490 0.0103 0 0 10 0
0.5560 0.2490 0.0103 0 0 10 0
0.5520 0.2483 0.0090 0 0 10 0
0.5520 0.2479 0.0089 0 0 10 0
0.5580 0.2477 0.0077 0 0 10 0
0.5580 0.2477 0.0077 0 0 10 0
0.5580 0.2473 0.0066 0 0 10 0
0.5560 0.2465 0.0048 0 0 10 0
0.5560 0.2465 0.0048 0 0 10 0
0.5280 0.2460 0.0031 0 0 10 0
0.5340 0.2459 0.0018 0 0 10 0
0.5340 0.2456 0.0015 0 0 10 0
0.5340 0.2456 0.0015 0 0 10 0
0.5420 0.2444 0.0016 0 0 10 0
0.5320 0.2435 0.0011 0 0 10 0
0.5320 0.2435 0.0011 0 0 10 0
0.5380 0.2437 0.0010 0 0 10 0
0.5400 0.2436 0.0034 0 0 10 0
0.5400 0.2436 0.0033 0 0 10 0
0.5440 0.2435 0.0002 0 0 10 0
0.5500 0.2434 0.0003 0 0 10 0
0.5380 0.2425 0.0013 0 0 10 0
0.5400 0.2418 0.0005 0 0 10 0
0.5480 0.2416 0.0006 0 0 10 0
0.5500 0.2413 0.0012 0 0 10 0
0.5500 0.2413 0.0012 0 0 10 0
0.5300 0.2411 0.0011 0 0 10 0
0.5480 0.2406 0.0001 0 0 10 0
0.5320 0.2398 0.0001 0 0 10 0
0.5440 0.2394 -0.0007 0 0 10 0
0.5500 0.2391 -0.0024 0 0 10 0
0.5280 0.2390 -0.0028 0 0 10 0
0.5280 0.2390 -0.0028 0 0 10 0
0.5500 0.2382 -0.0002 0 0 10 0
0.5380 0.2375 0.0007 0 0 10 0
0.5420 0.2373 0.0011 0 0 10 0
0.5420 0.2373 0.0011 0 0 10 0
0.5420 0.2360 0.0033 0 0 10 0
0.5420 0.2360 0.0033 0 0 10 0
0.5700 0.2357 0.0035 0 0 10 0
0.5520 0.2356 0.0041 0 0 10 0
0.5420 0.2350 0.0054 0 0 10 0
0.5420 0.2346 0.0052 0 0 10 0
0.5560 0.2346 0.0052 0 0 10 0
0.5440 0.2338 0.0027 0 0 10 0
0.5320 0.2332 0.0029 0 0 10 0
0.5500 0.2326 0.0031 0 0 10 0
0.5600 0.2322 0.0030 0 0 10 0
0.5420 0.2326 0.0019 0 0 10 0
0.5420 0.2326 0.0019 0 0 10 0
0.5360 0.2327 0.0014 0 0 10 0
0.5660 0.2330 0.0090 0 0 10 0
0.5580 0.2324 0.0091 0 0 10 0
0.5580 0.2324 0.0091 0 0 10 0
0.5540 0.2312 0.0058 0 0 10 0
0.5500 0.2304 0.0062 0 0 10 0
0.5500 0.2299 0.0061 0 0 10 0
0.5180 0.2299 0.0068 0 0 10 0
0.5300 0.2291 0.0063 0 0 10 0
0.5300 0.2291 0.0063 0 0 10 0
0.5500 0.2289 0.0066 0 0 10 0
0.5540 0.2284 0.0060 0 0 10 0
0.5460 0.2278 0.0050 0 0 10 0
0.5460 0.2278 0.0050 0 0 10 0
0.5460 0.2274 0.0040 0 0 10 0
0.5520 0.2268 0.0033 0 0 10 0
0.5540 0.2263 0.0019 0 0 10 0
0.5580 0.2257 0.0016 0 0 10 0
0.5680 0.2251 0.0018 0 0 10 0
0.5500 0.2243 -0.0002 0 0 10 0
0.5920 0.2239 0.0003 0 0 10 0
0.5460 0.2235 0.0005 0 0 10 0
0.5560 0.2229 0.0016 0 0 10 0
0.5560 0.2229 0.0016 0 0 10 0
0.5600 0.2223 0.0007 0 0 10 0
0.5800 0.2206 0.0049 0 0 10 0
0.5520 0.2203 0.0052 0 0 10 0
0.5520 0.2203 0.0052 0 0 10 0
0.5560 0.2199 0.0028 0 0 10 0
0.5560 0.2199 0.0028 0 0 10 0
0.5520 0.2200 0.0026 0 0 10 0
0.5520 0.2189 0.0007 0 0 10 0
0.5460 0.2181 0.0003 0 0 10 0
0.5460 0.2181 0.0003 0 0 10 0
0.5580 0.2173 0.0011 0 0 10 0
0.5620 0.2167 -0.0005 0 0 10 0
0.5720 0.2165 -0.0030 0 0 10 0
0.5720 0.2165 -0.0030 0 0 10 0
0.5560 0.2163 -0.0032 0 0 10 0
0.5340 0.2163 -0.0034 0 0 10 0
0.5480 0.2158 -0.0040 0 0 10 0
0.5480 0.2158 -0.0040 0 0 10 0
0.5700 0.2147 -0.0006 0 0 10 0
0.5700 0.2147 -0.0006 0 0 10 0
0.5720 0.2144 -0.0008 0 0 10 0
0.5280 0.2142 -0.0024 0 0 10 0
0.5720 0.2136 -0.0029 0 0 10 0
0.5520 0.2133 -0.0028 0 0 10 0
0.5520 0.2133 -0.0028 0 0 10 0
0.5460 0.2135 -0.0054 0 0 10 0
0.5460 0.2131 -0.0060 0 0 10 0
0.5300 0.2131 -0.0060 0 0 10 0
0.5460 0.2117 -0.0030 0 0 10 0
0.5420 0.2108 -0.0049 0 0 10 0
0.5260 0.2103 -0.0047 0 0 10 0
0.5260 0.2103 -0.0047 0 0 10 0
0.5500 0.2099 -0.0041 0 0 10 0
0.5480 0.2097 -0.0042 0 0 10 0
0.5600 0.2097 -0.0060 0 0 10 0
0.5440 0.2094 -0.0055 0 0 10 0
0.5640 0.2089 -0.0049 0 0 10 0
0.5460 0.2083 -0.0048 0 0 10 0
0.5460 0.2083 -0.0048 0 0 10 0
0.5600 0.2067 -0.0036 0 0 10 0
0.5440 0.2062 -0.0022 0 0 10 0
0.5440 0.2062 -0.0022 0 0 10 0
0.5320 0.2059 -0.0021 0 0 10 0
0.5360 0.2059 -0.0034 0 0 10 0
0.5520 0.2055 -0.0037 0 0 10 0
0.5460 0.2046 -0.0039 0 0 10 0
0.5540 0.2041 -0.0043 0 0 10 0
0.5540 0.2041 -0.0043 0 0 10 0
0.5360 0.2037 -0.0046 0 0 10 0
0.5440 0.2032 -0.0035 0 0 10 0
0.5540 0.2027 -0.0033 0 0 10 0
0.5620 0.2025 -0.0037 0 0 10 0
0.5620 0.2025 -0.0037 0 0 10 0
0.5500 0.2018 -0.0035 0 0 10 0
0.5500 0.2018 -0.0035 0 0 10 0
0.5440 0.2015 -0.0036 0 0 10 0
0.5660 0.2011 -0.0031 0 0 10 0
0.5540 0.2010 -0.0028 0 0 10 0
0.5860 0.2008 -0.0024 0 0 10 0
0.5860 0.2008 -0.0024 0 0 10 0
0.5560 0.2007 -0.0053 0 0 10 0
0.5500 0.2005 -0.0056 0 0 10 0
0.5680 0.1998 -0.0049 0 0 10 0
0.5680 0.1998 -0.0049 0 0 10 0
0.5800 0.1985 -0.0047 0 0 10 0
0.5500 0.1981 -0.0067 0 0 10 0
0.5620 0.1979 -0.0065 0 0 10 0
0.5640 0.1978 -0.0085 0 0 10 0
0.5520 0.1977 -0.0082 0 0 10 0
0.5520 0.1977 -0.0082 0 0 10 0
0.5720 0.1975 -0.0061 0 0 10 0
0.5660 0.1969 -0.0064 0 0 10 0
0.5660 0.1963 -0.0046 0 0 10 0
0.5600 0.1956 -0.0039 0 0 10 0
0.5520 0.1945 0.0011 0 0 10 0
0.5500 0.1942 0.0013 0 0 10 0
0.5500 0.1942 0.0013 0 0 10 0
0.5400 0.1942 -0.0021 0 0 10 0
0.5500 0.1941 -0.0057 0 0 10 0
0.5560 0.1940 -0.0057 0 0 10 0
0.5560 0.1940 -0.0057 0 0 10 0
0.5640 0.1938 -0.0052 0 0 10 0
0.5640 0.1932 -0.0051 0 0 10 0
0.5520 0.1927 -0.0066 0 0 10 0
0.5520 0.1919 -0.0060 0 0 10 0
0.5400 0.1916 -0.0062 0 0 10 0
0.5660 0.1912 -0.0066 0 0 10 0
0.5660 0.1912 -0.0066 0 0 10 0
0.5640 0.1905 -0.0076 0 0 10 0
0.5680 0.1890 -0.0076 0 0 10 0
0.5760 0.1884 -0.0056 0 0 10 0
0.5660 0.1874 -0.0058 0 0 10 0
0.5660 0.1868 -0.0058 0 0 10 0
0.5740 0.1868 -0.0058 0 0 10 0
0.5720 0.1862 -0.0044 0 0 10 0
0.5620 0.1858 -0.0029 0 0 10 0
0.5500 0.1857 -0.0027 0 0 10 0
0.5560 0.1854 -0.0020 0 0 10 0
0.5760 0.1853 -0.0021 0 0 10 0
0.5700 0.1850 -0.0035 0 0 10 0
0.5700 0.1850 -0.0035 0 0 10 0
0.5840 0.1847 -0.0032 0 0 10 0
0.5680 0.1844 -0.0016 0 0 10 0
0.5660 0.1839 -0.0016 0 0 10 0
0.5660 0.1839 -0.0016 0 0 10 0
0.5720 0.1827 -0.0056 0 0 10 0
0.5480 0.1823 -0.0052 0 0 10 0
0.5660 0.1821 -0.0031 0 0 10 0
0.5640 0.1819 -0.0028 0 0 10 0
0.5640 0.1816 -0.0022 0 0 10 0
0.5600 0.1818 -0.0022 0 0 10 0
0.5600 0.1818 -0.0022 0 0 10 0
0.5600 0.1818 0.0011 0 0 10 0
0.5660 0.1810 0.0008 0 0 10 0
0.5460 0.1800 0.0007 0 0 10 0
0.5540 0.1789 0.0019 0 0 10 0
0.5540 0.1789 0.0019 0 0 10 0
0.5800 0.1781 0.0013 0 0 10 0
0.5720 0.1779 0.0010 0 0 10 0
0.5580 0.1775 0.0005 0 0 10 0
0.5600 0.1771 0.0021 0 0 10 0
0.5700 0.1764 0.0010 0 0 10 0
0.5700 0.1764 0.0010 0 0 10 0
0.5680 0.1760 0.0015 0 0 10 0
0.5540 0.1751 0.0033 0 0 10 0
0.5520 0.1746 0.0037 0 0 10 0
0.5720 0.1740 0.0016 0 0 10 0
0.5720 0.1740 0.0016 0 0 10 0
0.5560 0.1740 0.0014 0 0 10 0
0.5560 0.1740 0.0014 0 0 10 0
0.5580 0.1743 0.0010 0 0 10 0
0.5580 0.1734 -0.0002 0 0 10 0
0.5500 0.1722 0.0002 0 0 10 0
0.5500 0.1722 0.0002 0 0 10 0
0.5460 0.1714 0.0024 0 0 10 0
0.5380 0.1708 0.0021 0 0 10 0
0.5760 0.1708 0.0012 0 0 10 0
0.5660 0.1709 0.0016 0 0 10 0
0.5580 0.1710 0.0031 0 0 10 0
0.5580 0.1710 0.0031 0 0 10 0
0.5660 0.1704 0.0035 0 0 10 0
0.5760 0.1697 0.0035 0 0 10 0
0.5680 0.1690 0.0038 0 0 10 0
0.5720 0.1689 0.0035 0 0 10 0
0.5720 0.1689 0.0035 0 0 10 0
0.5640 0.1687 0.0030 0 0 10 0
0.5860 0.1679 0.0043 0 0 10 0
0.5760 0.1676 0.0039 0 0 10 0
0.5620 0.1672 0.0037 0 0 10 0
0.5740 0.1668 0.0038 0 0 10 0
0.5760 0.1663 0.0050 0 0 10 0
0.5760 0.1663 0.0050 0 0 10 0
0.5700 0.1659 0.0052 0 0 10 0
0.5520 0.1654 0.0034 0 0 10 0
0.5640 0.1651 0.0042 0 0 10 0
0.5640 0.1651 0.0042 0 0 10 0
0.5660 0.1648 0.0033 0 0 10 0
0.5660 0.1648 0.0033 0 0 10 0
0.5660 0.1649 0.0036 0 0 10 0
0.5520 0.1644 0.0041 0 0 10 0
0.5760 0.1637 0.0042 0 0 10 0
0.5880 0.1631 0.0030 0 0 10 0
0.5840 0.1628 0.0026 0 0 10 0
0.5660 0.1621 0.0030 0 0 10 0
0.5660 0.1620 0.0028 0 0 10 0
0.5620 0.1620 0.0028 0 0 10 0
0.5600 0.1612 0.0004 0 0 10 0
0.5720 0.1607 0.0007 0 0 10 0
0.5740 0.1600 0.0036 0 0 10 0
0.5600 0.1594 0.0036 0 0 10 0
0.5640 0.1588 0.0036 0 0 10 0
0.5720 0.1585 0.0043 0 0 10 0
0.5680 0.1579 0.0045 0 0 10 0
0.5820 0.1576 0.0050 0 0 10 0
0.5820 0.1576 0.0050 0 0 10 0
0.5680 0.1564 0.0051 0 0 10 0
0.5640 0.1559 0.0052 0 0 10 0
0.5820 0.1553 0.0023 0 0 10 0
0.5820 0.1553 0.0023 0 0 10 0
0.5660 0.1545 0.0038 0 0 10 0
0.5660 0.1545 0.0038 0 0 10 0
0.5760 0.1543 0.0040 0 0 10 0
0.5740 0.1539 0.0030 0 0 10 0
0.5740 0.1539 0.0030 0 0 10 0
0.5720 0.1542 0.0040 0 0 10 0
0.5720 0.1542 0.0040 0 0 10 0
0.5800 0.1543 0.0031 0 0 10 0
0.5820 0.1536 0.0029 0 0 10 0
0.5740 0.1527 0.0029 0 0 10 0
0.5760 0.1512 0.0022 0 0 10 0
0.5980 0.1507 -0.0017 0 0 10 0
0.5780 0.1505 -0.0018 0 0 10 0
0.5780 0.1505 -0.0018 0 0 10 0
0.5780 0.1501 -0.0017 0 0 10 0
0.5660 0.1500 -0.0014 0 0 10 0
0.5740 0.1497 -0.0016 0 0 10 0
0.5740 0.1497 -0.0016 0 0 10 0
0.5720 0.1481 0.0013 0 0 10 0
0.5880 0.1472 0.0018 0 0 10 0
0.5880 0.1472 0.0018 0 0 10 0
0.5960 0.1470 0.0002 0 0 10 0
0.5820 0.1470 -0.0001 0 0 10 0
0.5860 0.1472 0.0011 0 0 10 0
0.5840 0.1472 0.0011 0 0 10 0
0.5760 0.1469 0.0007 0 0 10 0
0.5760 0.1469 0.0007 0 0 10 0
0.5700 0.1466 0.0023 0 0 10 0
0.5720 0.1461 0.0021 0 0 10 0
0.5800 0.1459 0.0025 0 0 10 0
0.5760 0.1458 0.0024 0 0 10 0
0.5760 0.1458 0.0024 0 0 10 0
0.6080 0.1449 0.0056 0 0 10 0
0.5760 0.1440 0.0047 0 0 10 0
0.5780 0.1427 0.0047 0 0 10 0
0.5820 0.1421 0.0059 0 0 10 0
0.5820 0.1421 0.0059 0 0 10 0
0.5800 0.1415 0.0063 0 0 10 0
0.5640 0.1407 0.0063 0 0 10 0
0.5880 0.1407 0.0064 0 0 10 0
0.5760 0.1406 0.0066 0 0 10 0
0.5760 0.1406 0.0066 0 0 10 0
0.5700 0.1408 0.0080 0 0 10 0
0.5800 0.1407 0.0081 0 0 10 0
0.5820 0.1403 0.0087 0 0 10 0
0.5820 0.1403 0.0087 0 0 10 0
0.6140 0.1387 0.0097 0 0 10 0
0.5840 0.1387 0.0097 0 0 10 0
0.5740 0.1383 0.0101 0 0 10 0
0.5780 0.1384 0.0111 0 0 10 0
0.5860 0.1387 0.0112 0 0 10 0
0.5880 0.1387 0.0113 0 0 10 0
0.5880 0.1387 0.0113 0 0 10 0
0.5820 0.1381 0.0107 0 0 10 0
0.5740 0.1372 0.0106 0 0 10 0
0.5920 0.1364 0.0086 0 0 10 0
0.5880 0.1358 0.0086 0 0 10 0
0.5880 0.1358 0.0086 0 0 10 0
0.5840 0.1352 0.0096 0 0 10 0
0.6080 0.1343 0.0100 0 0 10 0
0.6020 0.1336 0.0101 0 0 10 0
0.5980 0.1328 0.0113 0 0 10 0
0.6020 0.1334 0.0104 0 0 10 0
0.6020 0.1334 0.0104 0 0 10 0
0.6060 0.1341 0.0109 0 0 10 0
0.6040 0.1337 0.0096 0 0 10 0
0.6060 0.1331 0.0103 0 0 10 0
0.6060 0.1331 0.0103 0 0 10 0
0.6140 0.1324 0.0081 0 0 10 0
0.6000 0.1316 0.0090 0 0 10 0
0.6100 0.1317 0.0074 0 0 10 0
0.6100 0.1317 0.0074 0 0 10 0
0.6080 0.1304 0.0089 0 0 10 0
0.6080 0.1304 0.0089 0 0 10 0
0.5900 0.1296 0.0085 0 0 10 0
0.5820 0.1284 0.0082 0 0 10 0
0.5820 0.1284 0.0082 0 0 10 0
0.6120 0.1278 0.0103 0 0 10 0
0.6100 0.1268 0.0107 0 0 10 0
0.5920 0.1263 0.0110 0 0 10 0
0.6040 0.1256 0.0106 0 0 10 0
0.6040 0.1256 0.0106 0 0 10 0
0.5880 0.1251 0.0109 0 0 10 0
0.5880 0.1251 0.0109 0 0 10 0
0.6020 0.1247 0.0101 0 0 10 0
0.6080 0.1243 0.0113 0 0 10 0
0.6060 0.1245 0.0119 0 0 10 0
0.6140 0.1242 0.0101 0 0 10 0
0.6140 0.1242 0.0101 0 0 10 0
0.6200 0.1224 0.0121 0 0 10 0
0.6200 0.1224 0.0121 0 0 10 0
0.6120 0.1213 0.0097 0 0 10 0
0.6200 0.1211 0.0097 0 0 10 0
0.6200 0.1207 0.0108 0 0 10 0
0.6240 0.1207 0.0108 0 0 10 0
0.6300 0.1203 0.0084 0 0 10 0
0.6300 0.1203 0.0084 0 0 10 0
0.5940 0.1199 0.0092 0 0 10 0
0.6100 0.1193 0.0092 0 0 10 0
0.6260 0.1188 0.0098 0 0 10 0
0.6260 0.1188 0.0098 0 0 10 0
0.5820 0.1185 0.0104 0 0 10 0
0.6160 0.1183 0.0103 0 0 10 0
0.6160 0.1183 0.0103 0 0 10 0
0.6200 0.1188 0.0117 0 0 10 0
0.5900 0.1191 0.0111 0 0 10 0
0.6060 0.1190 0.0107 0 0 10 0
0.6120 0.1187 0.0106 0 0 10 0
0.6120 0.1187 0.0106 0 0 10 0
0.6120 0.1177 0.0118 0 0 10 0
0.6200 0.1171 0.0134 0 0 10 0
0.6100 0.1166 0.0141 0 0 10 0
0.6280 0.1159 0.0147 0 0 10 0
0.6280 0.1159 0.0147 0 0 10 0
0.6260 0.1154 0.0145 0 0 10 0
0.6100 0.1147 0.0140 0 0 10 0
0.5980 0.1143 0.0152 0 0 10 0
0.6120 0.1139 0.0139 0 0 10 0
0.6220 0.1139 0.0128 0 0 10 0
0.6220 0.1139 0.0128 0 0 10 0
0.6320 0.1135 0.0130 0 0 10 0
0.6280 0.1129 0.0128 0 0 10 0
0.6260 0.1125 0.0114 0 0 10 0
0.6480 0.1124 0.0113 0 0 10 0
0.6460 0.1119 0.0117 0 0 10 0
0.6060 0.1116 0.0113 0 0 10 0
0.6320 0.1112 0.0081 0 0 10 0
0.6360 0.1109 0.0085 0 0 10 0
0.6220 0.1105 0.0090 0 0 10 0
0.6260 0.1099 0.0096 0 0 10 0
0.6260 0.1099 0.0096 0 0 10 0
0.6240 0.1093 0.0083 0 0 10 0
0.6160 0.1094 0.0080 0 0 10 0
0.6020 0.1092 0.0090 0 0 10 0
0.6420 0.1088 0.0093 0 0 10 0
0.6420 0.1087 0.0098 0 0 10 0
0.6220 0.1087 0.0098 0 0 10 0
0.6060 0.1079 0.0108 0 0 10 0
0.6340 0.1075 0.0109 0 0 10 0
0.6200 0.1073 0.0099 0 0 10 0
0.6240 0.1067 0.0101 0 0 10 0
0.6240 0.1063 0.0122 0 0 10 0
0.6280 0.1063 0.0122 0 0 10 0
0.6320 0.1063 0.0121 0 0 10 0
0.6040 0.1065 0.0109 0 0 10 0
0.6040 0.1061 0.0110 0 0 10 0
0.6240 0.1061 0.0110 0 0 10 0
0.6160 0.1053 0.0108 0 0 10 0
0.6020 0.1053 0.0108 0 0 10 0
0.6040 0.1045 0.0114 0 0 10 0
0.6220 0.1039 0.0109 0 0 10 0
0.6160 0.1036 0.0120 0 0 10 0
0.6200 0.1030 0.0081 0 0 10 0
0.6200 0.1030 0.0081 0 0 10 0
0.6200 0.1024 0.0081 0 0 10 0
0.6140 0.1020 0.0088 0 0 10 0
0.6140 0.1015 0.0098 0 0 10 0
0.6180 0.1014 0.0093 0 0 10 0
0.6180 0.1014 0.0093 0 0 10 0
0.6260 0.1011 0.0094 0 0 10 0
0.6080 0.1000 0.0112 0 0 10 0
0.6360 0.0996 0.0105 0 0 10 0
0.6360 0.0996 0.0105 0 0 10 0
0.6200 0.0979 0.0102 0 0 10 0
0.6280 0.0971 0.0119 0 0 10 0
0.6280 0.0971 0.0119 0 0 10 0
0.6240 0.0962 0.0129 0 0 10 0
0.6240 0.0962 0.0129 0 0 10 0
0.6140 0.0958 0.0137 0 0 10 0
0.6160 0.0951 0.0140 0 0 10 0
0.6380 0.0949 0.0124 0 0 10 0
0.6260 0.0947 0.0121 0 0 10 0
0.6260 0.0947 0.0121 0 0 10 0
0.6200 0.0936 0.0128 0 0 10 0
0.6200 0.0936 0.0128 0 0 10 0
0.6400 0.0928 0.0131 0 0 10 0
0.6120 0.0920 0.0163 0 0 10 0
0.6260 0.0918 0.0164 0 0 10 0
0.6260 0.0918 0.0164 0 0 10 0
0.6180 0.0910 0.0153 0 0 10 0
0.6220 0.0905 0.0151 0 0 10 0
0.6040 0.0903 0.0161 0 0 10 0
0.6040 0.0903 0.0161 0 0 10 0
0.6000 0.0899 0.0124 0 0 10 0
0.6000 0.0893 0.0124 0 0 10 0
0.6280 0.0893 0.0124 0 0 10 0
0.6300 0.0885 0.0137 0 0 10 0
0.6180 0.0878 0.0148 0 0 10 0
0.6360 0.0871 0.0141 0 0 10 0
0.6360 0.0871 0.0141 0 0 10 0
0.6200 0.0863 0.0146 0 0 10 0
0.6320 0.0861 0.0137 0 0 10 0
0.6120 0.0861 0.0133 0 0 10 0
0.6040 0.0864 0.0138 0 0 10 0
0.6140 0.0866 0.0145 0 0 10 0
0.6240 0.0866 0.0143 0 0 10 0
0.6240 0.0866 0.0143 0 0 10 0
0.6320 0.0861 0.0142 0 0 10 0
0.6340 0.0854 0.0145 0 0 10 0
0.6320 0.0850 0.0136 0 0 10 0
0.6320 0.0850 0.0136 0 0 10 0
0.6120 0.0851 0.0085 0 0 10 0
0.6260 0.0853 0.0105 0 0 0 0
0.6360 0.0840 0.0126 0 0 0 -10
0.6320 0.0821 0.0162 0 0 0 -10
0.6280 0.0815 0.0163 0 0 0 -10
0.6320 0.0814 0.0201 0 0 0 -10
0.6340 0.0813 0.0198 0 0 0 0
0.6280 0.0810 0.0170 0 0 10 0
0.6060 0.0812 0.0143 0 0 10 0
0.6220 0.0811 0.0116 0 0 10 0
0.6220 0.0811 0.0116 0 0 10 0
0.6160 0.0811 0.0113 0 0 10 0
0.6540 0.0801 0.0112 0 0 10 0
0.6540 0.0801 0.0112 0 0 10 0
0.6580 0.0798 0.0096 0 0 10 0
0.6460 0.0794 0.0085 0 0 10 0
0.6440 0.0796 0.0082 0 0 10 0
0.6420 0.0798 0.0061 0 0 10 0
0.6420 0.0798 0.0061 0 0 10 0
0.6180 0.0799 0.0056 0 0 10 0
0.6180 0.0799 0.0056 0 0 10 0
0.6480 0.0794 0.0058 0 0 10 0
0.6380 0.0786 0.0042 0 0 10 0
0.6360 0.0787 0.0043 0 0 10 0
0.6200 0.0786 0.0037 0 0 10 0
0.6200 0.0786 0.0037 0 0 10 0
0.6320 0.0791 0.0024 0 0 0 0
0.6280 0.0790 0.0025 0 0 0 -10
0.6120 0.0781 0.0053 0 0 0 -10
0.6360 0.0775 0.0037 0 0 0 -10
0.6100 0.0759 0.0027 0 0 0 0
0.6380 0.0755 -0.0004 0 0 10 0
0.6240 0.0753 -0.0027 0 0 10 0
0.6240 0.0753 -0.0050 0 0 10 0
0.6340 0.0751 -0.0061 0 0 10 0
0.6340 0.0751 -0.0061 0 0 10 0
0.6100 0.0742 -0.0058 0 0 10 0
0.6260 0.0742 -0.0070 0 0 10 0
0.6120 0.0743 -0.0074 0 0 10 0
0.6120 0.0743 -0.0074 0 0 10 0
0.6140 0.0744 -0.0057 0 0 10 0
0.6400 0.0744 -0.0057 0 0 10 0
0.6300 0.0744 -0.0055 0 0 10 0
0.6320 0.0743 -0.0057 0 0 10 0
0.6360 0.0743 -0.0058 0 0 10 0
0.6460 0.0738 -0.0080 0 0 10 0
0.6260 0.0732 -0.0080 0 0 10 0
0.6380 0.0730 -0.0081 0 0 10 0
0.6100 0.0728 -0.0078 0 0 0 0
0.6460 0.0710 -0.0086 0 0 0 10
0.6340 0.0692 -0.0075 0 0 0 0
0.6720 0.0690 -0.0040 0 0 10 0
0.6200 0.0672 -0.0038 0 0 10 0
0.6320 0.0679 -0.0058 0 0 10 0
0.6320 0.0674 -0.0080 0 0 10 0
0.6260 0.0674 -0.0080 0 0 10 0
0.6360 0.0671 -0.0083 0 0 10 0
0.6400 0.0664 -0.0093 0 0 10 0
0.6380 0.0663 -0.0089 0 0 10 0
0.6380 0.0663 -0.0089 0 0 10 0
0.6420 0.0664 -0.0088 0 0 10 0
0.6380 0.0666 -0.0097 0 0 10 0
0.6540 0.0667 -0.0080 0 0 10 0
0.6520 0.0670 -0.0084 0 0 10 0
0.6340 0.0670 -0.0089 0 0 10 0
0.6340 0.0670 -0.0089 0 0 10 0
0.6400 0.0664 -0.0085 0 0 10 0
0.6420 0.0657 -0.0086 0 0 10 0
0.6520 0.0652 -0.0083 0 0 10 0
0.6440 0.0647 -0.0089 0 0 10 0
0.6400 0.0648 -0.0085 0 0 10 0
0.6400 0.0648 -0.0085 0 0 10 0
0.6380 0.0645 -0.0088 0 0 10 0
0.6400 0.0632 -0.0121 0 0 10 0
0.6680 0.0626 -0.0098 0 0 10 0
0.6640 0.0621 -0.0093 0 0 10 0
0.6520 0.0617 -0.0090 0 0 10 0
0.6520 0.0617 -0.0090 0 0 10 0
0.6340 0.0614 -0.0091 0 0 10 0
0.6380 0.0607 -0.0080 0 0 10 0
0.6660 0.0603 -0.0080 0 0 10 0
0.6660 0.0603 -0.0080 0 0 10 0
0.6520 0.0597 -0.0086 0 0 10 0
0.6580 0.0592 -0.0067 0 0 10 0
0.6320 0.0590 -0.0071 0 0 10 0
0.6400 0.0588 -0.0069 0 0 10 0
0.6400 0.0587 -0.0074 0 0 10 0
0.6500 0.0588 -0.0064 0 0 10 0
0.6540 0.0589 -0.0060 0 0 10 0
0.6540 0.0589 -0.0060 0 0 10 0
0.6620 0.0578 -0.0064 0 0 10 0
0.6780 0.0571 -0.0040 0 0 10 0
0.6380 0.0563 -0.0039 0 0 10 0
0.6720 0.0555 -0.0046 0 0 10 0
0.6720 0.0555 -0.0046 0 0 10 0
0.6800 0.0552 -0.0038 0 0 10 0
0.6720 0.0552 -0.0038 0 0 10 0
0.6660 0.0550 -0.0037 0 0 10 0
0.6700 0.0544 -0.0048 0 0 10 0
0.6700 0.0544 -0.0048 0 0 10 0
0.6580 0.0543 -0.0046 0 0 10 0
0.6540 0.0535 -0.0068 0 0 10 0
0.6680 0.0528 -0.0065 0 0 10 0
0.6600 0.0521 -0.0055 0 0 10 0
0.6600 0.0521 -0.0055 0 0 10 0
0.6580 0.0519 -0.0052 0 0 10 0
0.6680 0.0519 -0.0052 0 0 10 0
0.6580 0.0522 -0.0051 0 0 10 0
0.6580 0.0515 -0.0058 0 0 10 0
0.6580 0.0503 -0.0055 0 0 10 0
0.6580 0.0503 -0.0055 0 0 10 0
0.6600 0.0494 -0.0056 0 0 10 0
0.6700 0.0491 -0.0060 0 0 10 0
0.6720 0.0487 -0.0055 0 0 10 0
0.6500 0.0478 -0.0063 0 0 10 0
0.6680 0.0473 -0.0063 0 0 10 0
0.6680 0.0473 -0.0063 0 0 10 0
0.6560 0.0460 -0.0078 0 0 10 0
0.6560 0.0460 -0.0078 0 0 10 0
0.6540 0.0454 -0.0084 0 0 10 0
0.6460 0.0449 -0.0085 0 0 10 0
0.6740 0.0446 -0.0087 0 0 10 0
0.6740 0.0446 -0.0087 0 0 10 0
0.6660 0.0439 -0.0090 0 0 10 0
0.6700 0.0438 -0.0108 0 0 10 0
0.6700 0.0438 -0.0108 0 0 10 0
0.6760 0.0435 -0.0103 0 0 10 0
0.6560 0.0437 -0.0105 0 0 10 0
0.6560 0.0437 -0.0105 0 0 10 0
0.6460 0.0434 -0.0113 0 0 10 0
0.6600 0.0427 -0.0111 0 0 10 0
0.6560 0.0430 -0.0111 0 0 10 0
0.6640 0.0423 -0.0130 0 0 10 0
0.6640 0.0420 -0.0130 0 0 10 0
0.6520 0.0417 -0.0120 0 0 10 0
0.6520 0.0417 -0.0120 0 0 10 0
0.6620 0.0408 -0.0126 0 0 10 0
0.6840 0.0404 -0.0132 0 0 10 0
0.6600 0.0403 -0.0130 0 0 10 0
0.6600 0.0403 -0.0130 0 0 10 0
0.6620 0.0395 -0.0130 0 0 10 0
0.6620 0.0395 -0.0130 0 0 10 0
0.6760 0.0391 -0.0143 0 0 10 0
0.6740 0.0388 -0.0132 0 0 10 0
0.6800 0.0385 -0.0130 0 0 10 0
0.6800 0.0385 -0.0130 0 0 10 0
0.6760 0.0384 -0.0136 0 0 10 0
0.6660 0.0372 -0.0146 0 0 10 0
0.6860 0.0363 -0.0140 0 0 10 0
0.6620 0.0357 -0.0134 0 0 10 0
0.6620 0.0357 -0.0134 0 0 10 0
0.6440 0.0350 -0.0144 0 0 10 0
0.6440 0.0350 -0.0144 0 0 10 0
0.6640 0.0343 -0.0131 0 0 10 0
0.6540 0.0338 -0.0135 0 0 10 0
0.6720 0.0334 -0.0150 0 0 0 0
0.6700 0.0315 -0.0126 0 0 0 10
0.6360 0.0297 -0.0110 0 0 0 10
0.6680 0.0292 -0.0083 0 0 0 0
0.6640 0.0295 0.0014 0 0 10 0
0.6780 0.0310 0.0022 0 0 10 0
0.6840 0.0304 0.0031 0 0 10 0
0.6640 0.0307 0.0036 0 0 10 0
0.6900 0.0310 0.0022 0 0 10 0
0.6900 0.0310 0.0022 0 0 10 0
0.6780 0.0308 0.0024 0 0 10 0
0.6860 0.0303 0.0031 0 0 10 0
0.7000 0.0295 0.0037 0 0 10 0
0.6720 0.0292 0.0037 0 0 10 0
0.6820 0.0291 0.0040 0 0 10 0
0.6820 0.0291 0.0040 0 0 10 0
0.6660 0.0295 0.0045 0 0 10 0
0.6760 0.0293 0.0048 0 0 10 0
0.6760 0.0292 0.0057 0 0 10 0
0.6680 0.0291 0.0077 0 0 10 0
0.6760 0.0284 0.0077 0 0 10 0
0.6920 0.0277 0.0069 0 0 10 0
0.6920 0.0277 0.0069 0 0 10 0
0.6880 0.0270 0.0071 0 0 10 0
0.6700 0.0267 0.0086 0 0 10 0
0.6860 0.0262 0.0087 0 0 10 0
0.6760 0.0255 0.0085 0 0 10 0
0.6760 0.0255 0.0085 0 0 10 0
0.6740 0.0252 0.0089 0 0 10 0
0.6940 0.0247 0.0095 0 0 10 0
0.6900 0.0242 0.0085 0 0 10 0
0.6780 0.0241 0.0083 0 0 10 0
0.6760 0.0240 0.0079 0 0 10 0
0.6760 0.0240 0.0079 0 0 10 0
0.6880 0.0237 0.0064 0 0 10 0
0.6840 0.0231 0.0060 0 0 10 0
0.6760 0.0224 0.0067 0 0 10 0
0.6980 0.0218 0.0065 0 0 10 0
0.6960 0.0215 0.0058 0 0 10 0
0.6960 0.0215 0.0058 0 0 10 0
0.6820 0.0213 0.0056 0 0 10 0
0.6760 0.0216 0.0074 0 0 10 0
0.6760 0.0215 0.0076 0 0 10 0
0.6740 0.0213 0.0074 0 0 10 0
0.7040 0.0208 0.0074 0 0 10 0
0.6700 0.0197 0.0086 0 0 10 0
0.6720 0.0190 0.0083 0 0 10 0
0.7040 0.0186 0.0078 0 0 10 0
0.7000 0.0186 0.0077 0 0 10 0
0.6960 0.0187 0.0076 0 0 10 0
0.6960 0.0187 0.0076 0 0 10 0
0.6900 0.0185 0.0067 0 0 10 0
0.6880 0.0185 0.0067 0 0 10 0
0.6720 0.0179 0.0074 0 0 10 0
0.7080 0.0175 0.0080 0 0 10 0
0.6940 0.0169 0.0067 0 0 10 0
0.6940 0.0169 0.0067 0 0 10 0
0.6940 0.0164 0.0069 0 0 10 0
0.7060 0.0162 0.0074 0 0 10 0
0.7100 0.0156 0.0075 0 0 10 0
0.7040 0.0153 0.0073 0 0 10 0
0.6980 0.0149 0.0068 0 0 10 0
0.6980 0.0149 0.0068 0 0 10 0
0.6900 0.0144 0.0066 0 0 10 0
0.6940 0.0141 0.0064 0 0 10 0
0.6940 0.0135 0.0072 0 0 10 0
0.7020 0.0132 0.0072 0 0 10 0
0.7020 0.0129 0.0075 0 0 10 0
0.7060 0.0129 0.0075 0 0 10 0
0.6880 0.0119 0.0065 0 0 10 0
0.6880 0.0119 0.0065 0 0 10 0
0.7120 0.0108 0.0035 0 0 10 0
0.7120 0.0108 0.0035 0 0 10 0
0.7100 0.0102 0.0035 0 0 10 0
0.7060 0.0094 0.0064 0 0 0 0
0.6940 0.0089 0.0057 0 0 10 0
0.6940 0.0069 0.0055 0 0 10 0
0.7180 0.0071 0.0057 0 0 10 0
0.7100 0.0066 0.0053 0 0 10 0
0.7100 0.0066 0.0053 0 0 10 0
0.7120 0.0061 0.0037 0 0 0 0
