0.6020 0.2168 0.0012 0 0 10 0
0.6100 0.2169 0.0002 0 0 10 0
0.6200 0.2171 0.0000 0 0 10 0
0.6200 0.2171 0.0000 0 0 10 0
0.6100 0.2175 0.0017 0 0 10 0
0.6040 0.2180 0.0015 0 0 10 0
0.6160 0.2177 0.0014 0 0 10 0
0.5980 0.2169 0.0027 0 0 10 0
0.5920 0.2160 0.0025 0 0 10 0
0.6080 0.2153 0.0010 0 0 10 0
0.6080 0.2153 0.0010 0 0 10 0
0.6040 0.2144 0.0015 0 0 10 0
0.6020 0.2140 0.0051 0 0 10 0
0.5940 0.2143 0.0078 0 0 10 0
0.6080 0.2143 0.0083 0 0 10 0
0.6100 0.2144 0.0085 0 0 10 0
0.6100 0.2141 0.0103 0 0 10 0
0.6100 0.2141 0.0103 0 0 10 0
0.6080 0.2143 0.0100 0 0 10 0
0.5980 0.2142 0.0100 0 0 10 0
0.5920 0.2142 0.0121 0 0 10 0
0.5920 0.2132 0.0122 0 0 10 0
0.5820 0.2132 0.0122 0 0 10 0
0.5800 0.2126 0.0135 0 0 10 0
0.5680 0.2126 0.0135 0 0 10 0
0.6000 0.2129 0.0138 0 0 10 0
0.5800 0.2122 0.0129 0 0 10 0
0.6060 0.2112 0.0130 0 0 10 0
0.6060 0.2112 0.0130 0 0 10 0
0.6080 0.2100 0.0121 0 0 10 0
0.5940 0.2084 0.0123 0 0 10 0
0.6140 0.2081 0.0121 0 0 10 0
0.6140 0.2085 0.0120 0 0 10 0
0.6100 0.2088 0.0134 0 0 10 0
0.6100 0.2088 0.0134 0 0 10 0
0.5800 0.2087 0.0117 0 0 10 0
0.5800 0.2087 0.0117 0 0 10 0
0.5660 0.2056 0.0133 0 0 10 0
0.5660 0.2056 0.0133 0 0 10 0
0.5900 0.2053 0.0116 0 0 10 0
0.5800 0.2049 0.0107 0 0 10 0
0.5960 0.2052 0.0119 0 0 10 0
0.5960 0.2052 0.0119 0 0 10 0
0.5880 0.2045 0.0113 0 0 10 0
0.6080 0.2042 0.0113 0 0 10 0
0.5860 0.2042 0.0114 0 0 10 0
0.6000 0.2042 0.0114 0 0 10 0
0.5980 0.2031 0.0094 0 0 10 0
0.6040 0.2020 0.0066 0 0 10 0
0.5860 0.2012 0.0070 0 0 10 0
0.5800 0.2013 0.0064 0 0 10 0
0.5920 0.2010 0.0067 0 0 10 0
0.6020 0.2007 0.0090 0 0 10 0
0.6020 0.2007 0.0090 0 0 10 0
0.5860 0.2006 0.0092 0 0 10 0
0.5920 0.2004 0.0094 0 0 10 0
0.5920 0.2000 0.0098 0 0 10 0
0.6020 0.1998 0.0103 0 0 10 0
0.6020 0.1996 0.0095 0 0 10 0
0.5800 0.1996 0.0095 0 0 10 0
0.5820 0.1995 0.0095 0 0 10 0
0.5620 0.1991 0.0084 0 0 10 0
0.5720 0.1993 0.0061 0 0 10 0
0.5980 0.1992 0.0060 0 0 10 0
0.5980 0.1992 0.0060 0 0 10 0
0.5940 0.1988 0.0117 0 0 10 0
0.5900 0.1983 0.0123 0 0 10 0
0.5940 0.1984 0.0079 0 0 10 0
0.5960 0.1978 0.0082 0 0 10 0
0.5880 0.1974 0.0097 0 0 10 0
0.5840 0.1971 0.0091 0 0 10 0
0.5840 0.1971 0.0091 0 0 10 0
0.6020 0.1967 0.0076 0 0 10 0
0.5920 0.1961 0.0058 0 0 10 0
0.6100 0.1963 0.0059 0 0 10 0
0.6100 0.1963 0.0059 0 0 10 0
0.5940 0.1958 0.0040 0 0 10 0
0.6000 0.1958 0.0040 0 0 10 0
0.5960 0.1952 0.0056 0 0 10 0
0.5960 0.1949 0.0073 0 0 10 0
0.6240 0.1949 0.0076 0 0 10 0
0.6220 0.1947 0.0072 0 0 10 0
0.6140 0.1936 0.0079 0 0 10 0
0.6140 0.1930 0.0085 0 0 10 0
0.6100 0.1930 0.0085 0 0 10 0
0.5640 0.1925 0.0085 0 0 10 0
0.5740 0.1925 0.0098 0 0 10 0
0.6000 0.1925 0.0094 0 0 10 0
0.5920 0.1925 0.0069 0 0 10 0
0.5920 0.1921 0.0070 0 0 10 0
0.5680 0.1911 0.0089 0 0 10 0
0.5900 0.1899 0.0082 0 0 10 0
0.5920 0.1888 0.0067 0 0 10 0
0.5900 0.1885 0.0064 0 0 10 0
0.5900 0.1885 0.0064 0 0 10 0
0.5780 0.1883 0.0065 0 0 10 0
0.5780 0.1883 0.0062 0 0 10 0
0.6100 0.1887 0.0073 0 0 10 0
0.5960 0.1887 0.0064 0 0 10 0
0.6000 0.1886 0.0045 0 0 10 0
0.6000 0.1886 0.0045 0 0 10 0
0.5840 0.1879 0.0048 0 0 10 0
0.6040 0.1874 0.0067 0 0 10 0
0.6060 0.1870 0.0079 0 0 10 0
0.6060 0.1870 0.0079 0 0 10 0
0.5740 0.1869 0.0060 0 0 10 0
0.5940 0.1869 0.0070 0 0 10 0
0.5900 0.1864 0.0104 0 0 10 0
0.5900 0.1859 0.0107 0 0 10 0
0.5900 0.1852 0.0109 0 0 10 0
0.5900 0.1852 0.0109 0 0 10 0
0.5980 0.1839 0.0111 0 0 10 0
0.6140 0.1839 0.0137 0 0 10 0
0.5820 0.1838 0.0140 0 0 10 0
0.5820 0.1838 0.0140 0 0 10 0
0.5800 0.1834 0.0149 0 0 10 0
0.5800 0.1834 0.0149 0 0 10 0
0.5980 0.1829 0.0130 0 0 10 0
0.6060 0.1820 0.0133 0 0 10 0
0.6020 0.1814 0.0151 0 0 10 0
0.6080 0.1809 0.0148 0 0 10 0
0.6080 0.1809 0.0148 0 0 10 0
0.6000 0.1802 0.0160 0 0 10 0
0.6160 0.1792 0.0160 0 0 10 0
0.6080 0.1785 0.0169 0 0 10 0
0.6080 0.1785 0.0169 0 0 10 0
0.6020 0.1778 0.0134 0 0 10 0
0.6020 0.1778 0.0134 0 0 10 0
0.6000 0.1774 0.0139 0 0 10 0
0.5980 0.1770 0.0150 0 0 10 0
0.6080 0.1767 0.0137 0 0 10 0
0.6180 0.1764 0.0144 0 0 10 0
0.6180 0.1764 0.0144 0 0 10 0
0.6180 0.1759 0.0172 0 0 10 0
0.6180 0.1756 0.0177 0 0 10 0
0.6120 0.1756 0.0177 0 0 10 0
0.6020 0.1754 0.0182 0 0 10 0
0.6040 0.1752 0.0201 0 0 10 0
0.6160 0.1749 0.0197 0 0 10 0
0.6160 0.1749 0.0197 0 0 10 0
0.6000 0.1733 0.0213 0 0 10 0
0.6000 0.1733 0.0213 0 0 10 0
0.6000 0.1728 0.0209 0 0 10 0
0.6180 0.1725 0.0245 0 0 10 0
0.6140 0.1725 0.0239 0 0 10 0
0.6200 0.1726 0.0268 0 0 10 0
0.6000 0.1727 0.0258 0 0 10 0
0.6100 0.1714 0.0263 0 0 10 0
0.6100 0.1714 0.0263 0 0 10 0
0.5940 0.1703 0.0267 0 0 10 0
0.6040 0.1696 0.0258 0 0 10 0
0.6320 0.1695 0.0254 0 0 10 0
0.6320 0.1695 0.0254 0 0 10 0
0.6200 0.1688 0.0247 0 0 10 0
0.6100 0.1681 0.0246 0 0 10 0
0.6260 0.1679 0.0236 0 0 10 0
0.6180 0.1673 0.0263 0 0 10 0
0.6160 0.1670 0.0251 0 0 10 0
0.6160 0.1670 0.0251 0 0 10 0
0.6340 0.1659 0.0255 0 0 10 0
0.6240 0.1650 0.0236 0 0 10 0
0.6080 0.1647 0.0239 0 0 10 0
0.6140 0.1645 0.0227 0 0 10 0
0.6140 0.1645 0.0227 0 0 10 0
0.6220 0.1643 0.0216 0 0 10 0
0.6220 0.1643 0.0216 0 0 10 0
0.5920 0.1647 0.0222 0 0 10 0
0.6100 0.1646 0.0214 0 0 10 0
0.6200 0.1639 0.0211 0 0 10 0
0.6200 0.1630 0.0198 0 0 10 0
0.6140 0.1626 0.0201 0 0 10 0
0.6140 0.1626 0.0201 0 0 10 0
0.6000 0.1619 0.0192 0 0 10 0
0.6260 0.1616 0.0192 0 0 10 0
0.6220 0.1617 0.0235 0 0 10 0
0.6220 0.1617 0.0235 0 0 10 0
0.6200 0.1614 0.0241 0 0 10 0
0.6200 0.1606 0.0253 0 0 10 0
0.6080 0.1602 0.0249 0 0 10 0
0.6100 0.1601 0.0276 0 0 10 0
0.6100 0.1601 0.0276 0 0 10 0
0.6180 0.1591 0.0262 0 0 10 0
0.6180 0.1591 0.0262 0 0 10 0
0.6200 0.1585 0.0264 0 0 10 0
0.6240 0.1578 0.0260 0 0 10 0
0.6180 0.1575 0.0254 0 0 10 0
0.6180 0.1575 0.0254 0 0 10 0
0.6280 0.1564 0.0239 0 0 10 0
0.6060 0.1567 0.0249 0 0 10 0
0.6340 0.1567 0.0249 0 0 10 0
0.6220 0.1568 0.0236 0 0 10 0
0.6040 0.1567 0.0245 0 0 10 0
0.6160 0.1565 0.0239 0 0 10 0
0.5940 0.1562 0.0261 0 0 10 0
0.5940 0.1562 0.0261 0 0 10 0
0.6040 0.1557 0.0231 0 0 10 0
0.6220 0.1552 0.0233 0 0 10 0
0.6220 0.1552 0.0233 0 0 10 0
0.6320 0.1538 0.0236 0 0 10 0
0.6180 0.1523 0.0248 0 0 10 0
0.6180 0.1523 0.0248 0 0 10 0
0.6100 0.1517 0.0245 0 0 10 0
0.6360 0.1512 0.0247 0 0 10 0
0.6160 0.1504 0.0253 0 0 10 0
0.6160 0.1498 0.0219 0 0 10 0
0.5880 0.1493 0.0240 0 0 10 0
0.6120 0.1487 0.0235 0 0 10 0
0.6120 0.1487 0.0235 0 0 10 0
0.6400 0.1478 0.0218 0 0 10 0
0.6400 0.1470 0.0217 0 0 10 0
0.6460 0.1466 0.0192 0 0 10 0
0.6300 0.1460 0.0188 0 0 10 0
0.6300 0.1460 0.0188 0 0 10 0
0.6300 0.1463 0.0170 0 0 10 0
0.6180 0.1466 0.0173 0 0 10 0
0.6400 0.1462 0.0168 0 0 10 0
0.6240 0.1461 0.0168 0 0 10 0
0.6240 0.1461 0.0168 0 0 10 0
0.6300 0.1461 0.0169 0 0 10 0
0.6180 0.1461 0.0173 0 0 10 0
0.5980 0.1463 0.0145 0 0 10 0
0.6020 0.1456 0.0100 0 0 10 0
0.6160 0.1443 0.0092 0 0 10 0
0.6360 0.1433 0.0091 0 0 10 0
0.6360 0.1421 0.0084 0 0 10 0
0.6260 0.1421 0.0084 0 0 10 0
0.6320 0.1413 0.0076 0 0 10 0
0.6260 0.1412 0.0092 0 0 10 0
0.6100 0.1407 0.0101 0 0 10 0
0.6100 0.1401 0.0104 0 0 10 0
0.6100 0.1401 0.0104 0 0 10 0
0.6260 0.1396 0.0096 0 0 10 0
0.5980 0.1386 0.0095 0 0 10 0
0.6040 0.1385 0.0086 0 0 10 0
0.6040 0.1385 0.0086 0 0 10 0
0.6240 0.1379 0.0078 0 0 10 0
0.6240 0.1379 0.0078 0 0 10 0
0.6320 0.1369 0.0089 0 0 10 0
0.6240 0.1357 0.0091 0 0 10 0
0.6300 0.1352 0.0071 0 0 10 0
0.6140 0.1351 0.0073 0 0 10 0
0.6080 0.1353 0.0091 0 0 10 0
0.6080 0.1353 0.0091 0 0 10 0
0.6040 0.1352 0.0087 0 0 10 0
0.6060 0.1349 0.0086 0 0 10 0
0.6260 0.1348 0.0084 0 0 10 0
0.5920 0.1342 0.0025 0 0 10 0
0.6280 0.1340 0.0020 0 0 10 0
0.6280 0.1340 0.0020 0 0 10 0
0.6280 0.1337 -0.0023 0 0 10 0
0.6360 0.1330 -0.0025 0 0 10 0
0.6400 0.1324 -0.0009 0 0 10 0
0.6100 0.1319 -0.0006 0 0 10 0
0.6280 0.1313 -0.0006 0 0 10 0
0.6280 0.1313 -0.0006 0 0 10 0
0.5980 0.1313 0.0009 0 0 10 0
0.6000 0.1311 -0.0019 0 0 10 0
0.6080 0.1305 -0.0032 0 0 10 0
0.6220 0.1299 -0.0026 0 0 10 0
0.6120 0.1293 -0.0014 0 0 10 0
0.6380 0.1294 -0.0013 0 0 10 0
0.6160 0.1290 -0.0040 0 0 10 0
0.6180 0.1285 -0.0025 0 0 10 0
0.6180 0.1282 -0.0057 0 0 10 0
0.6460 0.1282 -0.0057 0 0 10 0
0.6300 0.1277 -0.0060 0 0 10 0
0.6260 0.1270 -0.0056 0 0 10 0
0.6260 0.1272 -0.0053 0 0 10 0
0.6260 0.1272 -0.0053 0 0 10 0
0.6200 0.1272 -0.0032 0 0 10 0
0.6240 0.1265 0.0007 0 0 10 0
0.6240 0.1265 0.0007 0 0 10 0
0.6260 0.1259 0.0015 0 0 10 0
0.6100 0.1254 0.0009 0 0 10 0
0.6300 0.1251 0.0012 0 0 10 0
0.6300 0.1251 0.0012 0 0 10 0
0.5920 0.1245 0.0026 0 0 10 0
0.6060 0.1238 0.0033 0 0 10 0
0.6260 0.1231 0.0061 0 0 10 0
0.6420 0.1223 0.0068 0 0 10 0
0.6340 0.1220 0.0060 0 0 10 0
0.6480 0.1218 0.0058 0 0 10 0
0.6480 0.1218 0.0058 0 0 10 0
0.6380 0.1217 0.0069 0 0 10 0
0.6520 0.1218 0.0070 0 0 10 0
0.6120 0.1207 0.0059 0 0 10 0
0.6120 0.1197 0.0075 0 0 10 0
0.6460 0.1189 0.0078 0 0 10 0
0.6460 0.1189 0.0078 0 0 10 0
0.6480 0.1184 0.0043 0 0 10 0
0.6540 0.1182 0.0004 0 0 10 0
0.6300 0.1187 0.0018 0 0 10 0
0.6300 0.1187 0.0018 0 0 10 0
0.6340 0.1187 0.0016 0 0 10 0
0.6480 0.1190 0.0013 0 0 10 0
0.6460 0.1192 0.0008 0 0 10 0
0.6480 0.1190 -0.0001 0 0 10 0
0.6360 0.1185 0.0012 0 0 10 0
0.6060 0.1179 0.0010 0 0 10 0
0.6160 0.1174 -0.0004 0 0 10 0
0.6400 0.1175 0.0014 0 0 10 0
0.6000 0.1173 0.0012 0 0 10 0
0.6240 0.1151 -0.0033 0 0 10 0
0.6340 0.1143 -0.0011 0 0 10 0
0.6340 0.1143 -0.0011 0 0 10 0
0.6340 0.1140 -0.0006 0 0 10 0
0.6340 0.1141 -0.0022 0 0 10 0
0.6260 0.1143 -0.0022 0 0 10 0
0.6260 0.1143 -0.0022 0 0 10 0
0.6480 0.1140 -0.0023 0 0 10 0
0.6420 0.1140 -0.0027 0 0 10 0
0.6360 0.1139 -0.0024 0 0 10 0
0.6560 0.1130 -0.0011 0 0 10 0
0.6400 0.1126 -0.0047 0 0 10 0
0.6500 0.1120 -0.0045 0 0 10 0
0.6380 0.1117 -0.0092 0 0 10 0
0.6420 0.1115 -0.0080 0 0 10 0
0.6360 0.1114 -0.0104 0 0 10 0
0.6540 0.1107 -0.0099 0 0 10 0
0.6260 0.1099 -0.0106 0 0 10 0
0.6340 0.1097 -0.0087 0 0 10 0
0.6340 0.1097 -0.0087 0 0 10 0
0.6260 0.1089 -0.0073 0 0 10 0
0.6260 0.1089 -0.0073 0 0 10 0
0.6420 0.1085 -0.0042 0 0 10 0
0.6420 0.1090 -0.0030 0 0 10 0
0.6540 0.1088 -0.0029 0 0 10 0
0.6540 0.1088 -0.0029 0 0 10 0
0.6520 0.1085 -0.0019 0 0 10 0
0.6380 0.1085 -0.0007 0 0 10 0
0.6320 0.1085 0.0000 0 0 10 0
0.6320 0.1081 0.0008 0 0 10 0
0.6380 0.1074 0.0003 0 0 10 0
0.6380 0.1074 0.0003 0 0 10 0
0.6360 0.1067 0.0003 0 0 10 0
0.6560 0.1062 0.0001 0 0 10 0
0.6440 0.1058 0.0005 0 0 10 0
0.6300 0.1051 0.0036 0 0 10 0
0.6300 0.1048 0.0041 0 0 10 0
0.6460 0.1045 0.0038 0 0 10 0
0.6460 0.1045 0.0038 0 0 10 0
0.6540 0.1042 0.0043 0 0 10 0
0.6660 0.1037 0.0050 0 0 10 0
0.6440 0.1036 0.0049 0 0 10 0
0.6300 0.1031 0.0034 0 0 10 0
0.6300 0.1031 0.0052 0 0 10 0
0.6380 0.1027 0.0051 0 0 10 0
0.6380 0.1027 0.0051 0 0 10 0
0.6360 0.1022 0.0050 0 0 10 0
0.6380 0.1017 0.0071 0 0 10 0
0.6480 0.1010 0.0077 0 0 10 0
0.6480 0.1010 0.0077 0 0 10 0
0.6660 0.1000 0.0054 0 0 10 0
0.6660 0.1000 0.0054 0 0 10 0
0.6600 0.0996 0.0073 0 0 10 0
0.6340 0.0992 0.0038 0 0 10 0
0.6480 0.0992 0.0045 0 0 10 0
0.6480 0.0992 0.0045 0 0 10 0
0.6360 0.0991 0.0077 0 0 10 0
0.6720 0.0984 0.0049 0 0 10 0
0.6540 0.0981 0.0034 0 0 10 0
0.6440 0.0979 0.0035 0 0 10 0
0.6440 0.0979 0.0035 0 0 10 0
0.6380 0.0972 0.0008 0 0 10 0
0.6520 0.0968 -0.0004 0 0 10 0
0.6480 0.0966 -0.0009 0 0 10 0
0.6320 0.0962 -0.0016 0 0 10 0
0.6320 0.0962 -0.0016 0 0 10 0
0.6420 0.0958 -0.0009 0 0 10 0
0.6300 0.0952 0.0014 0 0 10 0
0.6540 0.0947 0.0026 0 0 10 0
0.6220 0.0933 0.0028 0 0 10 0
0.6380 0.0922 0.0031 0 0 10 0
0.6280 0.0917 0.0006 0 0 10 0
0.6600 0.0909 0.0008 0 0 10 0
0.6600 0.0909 0.0008 0 0 10 0
0.6140 0.0905 0.0036 0 0 10 0
0.6420 0.0905 0.0028 0 0 10 0
0.6380 0.0901 0.0031 0 0 10 0
0.6200 0.0899 0.0037 0 0 10 0
0.6340 0.0898 0.0029 0 0 10 0
0.6340 0.0898 0.0029 0 0 10 0
0.6520 0.0892 0.0021 0 0 10 0
0.6680 0.0890 0.0019 0 0 10 0
0.6400 0.0890 0.0004 0 0 10 0
0.6480 0.0890 -0.0025 0 0 10 0
0.6660 0.0884 -0.0018 0 0 10 0
0.6660 0.0884 -0.0018 0 0 10 0
0.6440 0.0884 -0.0024 0 0 10 0
0.6320 0.0879 -0.0034 0 0 10 0
0.6360 0.0872 -0.0035 0 0 10 0
0.6200 0.0868 -0.0050 0 0 10 0
0.6200 0.0868 -0.0050 0 0 10 0
0.6320 0.0865 -0.0045 0 0 10 0
0.6320 0.0855 -0.0079 0 0 10 0
0.6440 0.0849 -0.0077 0 0 10 0
0.6600 0.0844 -0.0110 0 0 10 0
0.6460 0.0839 -0.0100 0 0 10 0
0.6500 0.0833 -0.0087 0 0 10 0
0.6500 0.0833 -0.0087 0 0 10 0
0.6560 0.0832 -0.0082 0 0 10 0
0.6500 0.0832 -0.0066 0 0 10 0
0.6640 0.0831 -0.0059 0 0 10 0
0.6580 0.0830 -0.0111 0 0 10 0
0.6480 0.0829 -0.0107 0 0 10 0
0.6440 0.0830 -0.0111 0 0 10 0
0.6440 0.0830 -0.0111 0 0 10 0
0.6260 0.0829 -0.0098 0 0 10 0
0.6520 0.0823 -0.0093 0 0 10 0
0.6440 0.0821 -0.0070 0 0 10 0
0.6440 0.0821 -0.0070 0 0 10 0
0.6600 0.0809 -0.0048 0 0 10 0
0.6600 0.0809 -0.0048 0 0 10 0
0.6640 0.0803 -0.0083 0 0 10 0
0.6860 0.0799 -0.0080 0 0 10 0
0.6440 0.0797 -0.0088 0 0 10 0
0.6320 0.0795 -0.0079 0 0 10 0
0.6480 0.0792 -0.0084 0 0 10 0
0.6480 0.0792 -0.0084 0 0 10 0
0.6480 0.0789 -0.0078 0 0 10 0
0.6420 0.0786 -0.0094 0 0 10 0
0.6540 0.0787 -0.0092 0 0 10 0
0.6360 0.0787 -0.0100 0 0 10 0
0.6780 0.0780 -0.0088 0 0 10 0
0.6780 0.0780 -0.0088 0 0 10 0
0.6600 0.0773 -0.0091 0 0 10 0
0.6480 0.0762 -0.0081 0 0 10 0
0.6460 0.0756 -0.0069 0 0 10 0
0.6620 0.0754 -0.0061 0 0 10 0
0.6620 0.0754 -0.0061 0 0 10 0
0.6580 0.0749 -0.0072 0 0 10 0
0.6600 0.0747 -0.0066 0 0 10 0
0.6500 0.0739 -0.0106 0 0 10 0
0.6560 0.0735 -0.0105 0 0 10 0
0.6560 0.0735 -0.0105 0 0 10 0
0.6640 0.0728 -0.0148 0 0 10 0
0.6680 0.0720 -0.0136 0 0 10 0
0.6460 0.0714 -0.0150 0 0 10 0
0.6720 0.0707 -0.0150 0 0 10 0
0.6720 0.0707 -0.0150 0 0 10 0
0.6660 0.0688 -0.0120 0 0 10 0
0.6740 0.0688 -0.0120 0 0 10 0
0.6840 0.0684 -0.0108 0 0 10 0
0.6800 0.0688 -0.0104 0 0 10 0
0.6700 0.0692 -0.0135 0 0 10 0
0.6520 0.0689 -0.0125 0 0 10 0
0.6760 0.0677 -0.0158 0 0 10 0
0.6760 0.0677 -0.0158 0 0 10 0
0.6700 0.0672 -0.0174 0 0 10 0
0.6700 0.0668 -0.0149 0 0 10 0
0.6620 0.0667 -0.0165 0 0 10 0
0.6600 0.0665 -0.0163 0 0 10 0
0.6600 0.0665 -0.0163 0 0 10 0
0.6720 0.0666 -0.0157 0 0 10 0
0.6760 0.0663 -0.0157 0 0 10 0
0.6840 0.0655 -0.0166 0 0 10 0
0.6640 0.0645 -0.0155 0 0 10 0
0.6680 0.0643 -0.0119 0 0 10 0
0.6520 0.0643 -0.0108 0 0 10 0
0.6520 0.0642 -0.0155 0 0 10 0
0.6520 0.0642 -0.0155 0 0 10 0
0.6580 0.0634 -0.0170 0 0 10 0
0.6780 0.0620 -0.0157 0 0 10 0
0.6580 0.0613 -0.0217 0 0 10 0
0.6420 0.0606 -0.0213 0 0 10 0
0.6420 0.0606 -0.0213 0 0 10 0
0.6700 0.0597 -0.0193 0 0 10 0
0.6700 0.0597 -0.0193 0 0 10 0
0.6620 0.0597 -0.0201 0 0 10 0
0.6740 0.0593 -0.0168 0 0 10 0
0.6740 0.0593 -0.0168 0 0 10 0
0.6540 0.0586 -0.0226 0 0 10 0
0.6700 0.0586 -0.0221 0 0 10 0
0.6920 0.0579 -0.0222 0 0 10 0
0.6920 0.0579 -0.0222 0 0 10 0
0.6760 0.0555 -0.0231 0 0 10 0
0.6760 0.0555 -0.0231 0 0 10 0
0.6740 0.0551 -0.0206 0 0 10 0
0.6780 0.0543 -0.0189 0 0 10 0
0.6520 0.0546 -0.0186 0 0 10 0
0.6740 0.0546 -0.0174 0 0 10 0
0.6740 0.0546 -0.0174 0 0 10 0
0.6680 0.0545 -0.0142 0 0 10 0
0.6620 0.0542 -0.0158 0 0 10 0
0.6640 0.0539 -0.0162 0 0 10 0
0.6760 0.0538 -0.0177 0 0 10 0
0.6860 0.0540 -0.0172 0 0 10 0
0.6860 0.0540 -0.0172 0 0 10 0
0.6800 0.0538 -0.0194 0 0 10 0
0.6840 0.0528 -0.0183 0 0 10 0
0.6920 0.0518 -0.0175 0 0 10 0
0.6920 0.0518 -0.0175 0 0 10 0
0.6660 0.0513 -0.0212 0 0 10 0
0.6660 0.0513 -0.0212 0 0 10 0
0.6800 0.0508 -0.0192 0 0 10 0
0.6800 0.0508 -0.0192 0 0 10 0
0.6800 0.0507 -0.0171 0 0 10 0
0.6800 0.0507 -0.0171 0 0 10 0
0.6540 0.0505 -0.0162 0 0 10 0
0.7000 0.0504 -0.0155 0 0 10 0
0.6800 0.0501 -0.0149 0 0 10 0
0.6880 0.0502 -0.0150 0 0 10 0
0.6840 0.0505 -0.0144 0 0 10 0
0.6960 0.0497 -0.0148 0 0 10 0
0.6960 0.0497 -0.0148 0 0 10 0
0.6980 0.0482 -0.0146 0 0 10 0
0.7160 0.0471 -0.0130 0 0 10 0
0.7040 0.0462 -0.0125 0 0 10 0
0.6940 0.0453 -0.0121 0 0 10 0
0.7060 0.0454 -0.0114 0 0 10 0
0.7060 0.0454 -0.0114 0 0 10 0
0.6980 0.0452 -0.0110 0 0 10 0
0.7040 0.0448 -0.0104 0 0 10 0
0.7260 0.0445 -0.0103 0 0 10 0
0.7060 0.0443 -0.0134 0 0 10 0
0.7060 0.0443 -0.0134 0 0 10 0
0.7100 0.0440 -0.0134 0 0 10 0
0.7080 0.0436 -0.0132 0 0 10 0
0.7160 0.0430 -0.0135 0 0 10 0
0.7160 0.0430 -0.0135 0 0 10 0
0.6920 0.0424 -0.0076 0 0 10 0
0.6920 0.0424 -0.0076 0 0 10 0
0.6900 0.0421 -0.0050 0 0 10 0
0.7040 0.0417 -0.0050 0 0 10 0
0.7040 0.0418 -0.0046 0 0 10 0
0.6980 0.0417 -0.0047 0 0 10 0
0.6980 0.0417 -0.0047 0 0 10 0
0.7080 0.0414 -0.0070 0 0 10 0
0.6980 0.0409 -0.0075 0 0 10 0
0.7060 0.0400 -0.0079 0 0 10 0
0.7060 0.0400 -0.0079 0 0 10 0
0.7080 0.0395 -0.0080 0 0 10 0
0.7080 0.0395 -0.0080 0 0 10 0
0.7120 0.0395 -0.0047 0 0 10 0
0.7200 0.0391 -0.0048 0 0 10 0
0.7120 0.0388 -0.0036 0 0 10 0
0.7120 0.0388 -0.0036 0 0 10 0
0.7060 0.0388 -0.0014 0 0 10 0
0.7060 0.0386 0.0033 0 0 10 0
0.6820 0.0379 0.0046 0 0 10 0
0.6820 0.0379 0.0046 0 0 10 0
0.6960 0.0378 0.0049 0 0 10 0
0.7040 0.0379 0.0046 0 0 10 0
0.7180 0.0379 0.0043 0 0 10 0
0.7160 0.0376 0.0024 0 0 10 0
0.7180 0.0360 0.0043 0 0 10 0
0.7180 0.0351 0.0049 0 0 10 0
0.7020 0.0343 0.0053 0 0 10 0
0.7020 0.0343 0.0053 0 0 10 0
0.7320 0.0333 0.0050 0 0 10 0
0.7120 0.0328 0.0059 0 0 10 0
0.7180 0.0326 0.0062 0 0 10 0
0.7160 0.0320 -0.0007 0 0 10 0
0.7140 0.0316 -0.0005 0 0 10 0
0.7140 0.0316 -0.0005 0 0 10 0
0.7040 0.0314 -0.0019 0 0 10 0
0.7160 0.0307 -0.0019 0 0 10 0
0.7380 0.0299 -0.0014 0 0 10 0
0.7080 0.0289 -0.0018 0 0 10 0
0.7140 0.0285 0.0005 0 0 10 0
0.7000 0.0285 0.0000 0 0 10 0
0.7000 0.0285 0.0000 0 0 10 0
0.7080 0.0287 -0.0036 0 0 10 0
0.7080 0.0285 -0.0039 0 0 10 0
0.7300 0.0282 -0.0048 0 0 10 0
0.7360 0.0276 -0.0053 0 0 10 0
0.7280 0.0266 -0.0000 0 0 10 0
0.6920 0.0263 0.0028 0 0 10 0
0.6920 0.0263 0.0028 0 0 10 0
0.7220 0.0259 -0.0002 0 0 10 0
0.7140 0.0256 -0.0068 0 0 10 0
0.7360 0.0254 -0.0079 0 0 10 0
0.7200 0.0250 -0.0055 0 0 10 0
0.7140 0.0243 -0.0067 0 0 10 0
0.7140 0.0238 -0.0101 0 0 10 0
0.7180 0.0231 -0.0112 0 0 10 0
0.7240 0.0228 -0.0112 0 0 10 0
0.7300 0.0229 -0.0116 0 0 10 0
0.7260 0.0223 -0.0123 0 0 10 0
0.7080 0.0221 -0.0108 0 0 10 0
0.7140 0.0216 -0.0104 0 0 10 0
0.7180 0.0211 -0.0117 0 0 10 0
0.7180 0.0203 -0.0111 0 0 10 0
0.7280 0.0197 -0.0104 0 0 10 0
0.7280 0.0197 -0.0104 0 0 10 0
0.7140 0.0188 -0.0116 0 0 10 0
0.7140 0.0188 -0.0116 0 0 10 0
0.7260 0.0188 -0.0113 0 0 10 0
0.7400 0.0186 -0.0086 0 0 10 0
0.7340 0.0181 -0.0081 0 0 10 0
0.7440 0.0180 -0.0077 0 0 10 0
0.7440 0.0180 -0.0077 0 0 10 0
0.7280 0.0177 -0.0075 0 0 10 0
0.7340 0.0173 -0.0090 0 0 10 0
0.7300 0.0167 -0.0091 0 0 10 0
0.7380 0.0167 -0.0087 0 0 10 0
0.7400 0.0166 -0.0082 0 0 10 0
0.7140 0.0159 -0.0096 0 0 10 0
0.7140 0.0159 -0.0096 0 0 10 0
0.7380 0.0147 -0.0118 0 0 10 0
0.7320 0.0137 -0.0126 0 0 10 0
0.7440 0.0132 -0.0113 0 0 10 0
0.7440 0.0132 -0.0113 0 0 10 0
0.7320 0.0133 -0.0124 0 0 10 0
0.7520 0.0132 -0.0152 0 0 10 0
0.7260 0.0129 -0.0145 0 0 10 0
0.7580 0.0124 -0.0113 0 0 10 0
0.7380 0.0121 -0.0105 0 0 10 0
0.7320 0.0117 -0.0134 0 0 10 0
0.7320 0.0117 -0.0134 0 0 10 0
0.7440 0.0117 -0.0112 0 0 10 0
0.7480 0.0115 -0.0107 0 0 0 0
0.7420 0.0085 -0.0137 0 0 10 0
0.7400 0.0059 -0.0098 0 0 10 0
0.7600 0.0057 -0.0090 0 0 0 0
0.7560 0.0055 -0.0088 0 0 10 0
0.7360 0.0054 -0.0077 0 0 10 0
0.7540 0.0055 -0.0076 0 0 0 0
0.7620 0.0051 -0.0059 0 0 10 0
