0.5700 0.2359 0.0083 0 0 10 0
0.6000 0.2377 0.0094 0 0 10 0
0.6180 0.2373 0.0098 0 0 10 0
0.6080 0.2377 0.0118 0 0 10 0
0.6000 0.2377 0.0125 0 0 10 0
0.5860 0.2372 0.0090 0 0 10 0
0.5860 0.2372 0.0090 0 0 10 0
0.6120 0.2369 0.0087 0 0 10 0
0.5860 0.2369 0.0087 0 0 10 0
0.5880 0.2373 0.0081 0 0 10 0
0.5820 0.2371 0.0100 0 0 10 0
0.5940 0.2368 0.0095 0 0 10 0
0.5780 0.2365 0.0101 0 0 10 0
0.5780 0.2361 0.0098 0 0 10 0
0.5580 0.2361 0.0098 0 0 10 0
0.5920 0.2352 0.0083 0 0 10 0
0.5920 0.2347 0.0082 0 0 10 0
0.5840 0.2348 0.0086 0 0 10 0
0.5840 0.2348 0.0086 0 0 10 0
0.5780 0.2348 0.0102 0 0 10 0
0.5900 0.2349 0.0124 0 0 10 0
0.5900 0.2347 0.0119 0 0 10 0
0.5740 0.2339 0.0117 0 0 10 0
0.5880 0.2334 0.0120 0 0 10 0
0.5720 0.2329 0.0126 0 0 10 0
0.5720 0.2329 0.0126 0 0 10 0
0.5760 0.2321 0.0132 0 0 10 0
0.5860 0.2310 0.0149 0 0 10 0
0.5980 0.2304 0.0178 0 0 10 0
0.5900 0.2302 0.0164 0 0 10 0
0.5960 0.2298 0.0163 0 0 10 0
0.5800 0.2299 0.0182 0 0 10 0
0.5800 0.2300 0.0181 0 0 10 0
0.5760 0.2300 0.0181 0 0 10 0
0.5920 0.2298 0.0150 0 0 10 0
0.5800 0.2291 0.0157 0 0 10 0
0.6060 0.2287 0.0170 0 0 10 0
0.5680 0.2283 0.0163 0 0 10 0
0.5680 0.2283 0.0163 0 0 10 0
0.5620 0.2278 0.0149 0 0 10 0
0.5760 0.2269 0.0150 0 0 10 0
0.5960 0.2261 0.0193 0 0 10 0
0.6020 0.2259 0.0192 0 0 10 0
0.5860 0.2253 0.0231 0 0 10 0
0.6080 0.2250 0.0236 0 0 10 0
0.6080 0.2250 0.0236 0 0 10 0
0.5840 0.2246 0.0233 0 0 10 0
0.5780 0.2245 0.0223 0 0 10 0
0.5860 0.2248 0.0223 0 0 10 0
0.5720 0.2246 0.0195 0 0 10 0
0.5720 0.2246 0.0195 0 0 10 0
0.5960 0.2243 0.0192 0 0 10 0
0.5860 0.2234 0.0166 0 0 10 0
0.5960 0.2229 0.0165 0 0 10 0
0.6000 0.2223 0.0151 0 0 10 0
0.6020 0.2220 0.0147 0 0 10 0
0.6020 0.2220 0.0147 0 0 10 0
0.5820 0.2215 0.0119 0 0 10 0
0.5840 0.2206 0.0139 0 0 10 0
0.5840 0.2206 0.0139 0 0 10 0
0.6100 0.2197 0.0147 0 0 10 0
0.5860 0.2194 0.0145 0 0 10 0
0.5860 0.2194 0.0145 0 0 10 0
0.5800 0.2182 0.0126 0 0 10 0
0.5620 0.2173 0.0128 0 0 10 0
0.5800 0.2162 0.0138 0 0 10 0
0.5800 0.2162 0.0138 0 0 10 0
0.6080 0.2155 0.0120 0 0 10 0
0.5860 0.2155 0.0120 0 0 10 0
0.5940 0.2160 0.0121 0 0 10 0
0.5700 0.2160 0.0132 0 0 10 0
0.5940 0.2157 0.0137 0 0 10 0
0.6040 0.2153 0.0150 0 0 10 0
0.6040 0.2153 0.0150 0 0 10 0
0.5940 0.2141 0.0165 0 0 10 0
0.6000 0.2130 0.0174 0 0 10 0
0.6020 0.2127 0.0179 0 0 10 0
0.5880 0.2132 0.0179 0 0 10 0
0.5720 0.2135 0.0179 0 0 10 0
0.5840 0.2135 0.0176 0 0 10 0
0.5840 0.2135 0.0176 0 0 10 0
0.5980 0.2132 0.0175 0 0 10 0
0.5980 0.2128 0.0174 0 0 10 0
0.5960 0.2125 0.0178 0 0 10 0
0.5860 0.2115 0.0202 0 0 10 0
0.6000 0.2106 0.0207 0 0 10 0
0.5860 0.2098 0.0203 0 0 10 0
0.6040 0.2096 0.0204 0 0 10 0
0.5840 0.2097 0.0200 0 0 10 0
0.5820 0.2097 0.0179 0 0 10 0
0.5820 0.2097 0.0179 0 0 10 0
0.5980 0.2097 0.0174 0 0 10 0
0.6040 0.2093 0.0163 0 0 10 0
0.6100 0.2087 0.0154 0 0 10 0
0.6100 0.2087 0.0154 0 0 10 0
0.5960 0.2076 0.0154 0 0 10 0
0.5940 0.2073 0.0148 0 0 10 0
0.5940 0.2073 0.0148 0 0 10 0
0.5940 0.2067 0.0107 0 0 10 0
0.5980 0.2058 0.0105 0 0 10 0
0.5940 0.2053 0.0112 0 0 10 0
0.5940 0.2053 0.0112 0 0 10 0
0.6020 0.2051 0.0078 0 0 10 0
0.6020 0.2051 0.0078 0 0 10 0
0.5860 0.2048 0.0077 0 0 10 0
0.6020 0.2045 0.0076 0 0 10 0
0.6040 0.2042 0.0075 0 0 10 0
0.6040 0.2042 0.0075 0 0 10 0
0.5820 0.2036 0.0107 0 0 10 0
0.6020 0.2034 0.0111 0 0 10 0
0.5980 0.2026 0.0096 0 0 10 0
0.5980 0.2026 0.0096 0 0 10 0
0.6120 0.2006 0.0104 0 0 10 0
0.6120 0.2006 0.0104 0 0 10 0
0.6120 0.1992 0.0098 0 0 10 0
0.6140 0.1986 0.0070 0 0 10 0
0.6080 0.1990 0.0065 0 0 10 0
0.6080 0.1990 0.0065 0 0 10 0
0.6000 0.1992 0.0035 0 0 10 0
0.5760 0.1988 0.0034 0 0 10 0
0.5920 0.1982 0.0015 0 0 10 0
0.5960 0.1978 0.0013 0 0 10 0
0.5960 0.1978 0.0013 0 0 10 0
0.6020 0.1975 0.0031 0 0 10 0
0.6020 0.1975 0.0031 0 0 10 0
0.6020 0.1969 0.0045 0 0 10 0
0.5840 0.1968 0.0058 0 0 10 0
0.6020 0.1953 0.0040 0 0 10 0
0.6100 0.1938 0.0040 0 0 10 0
0.6000 0.1933 0.0020 0 0 10 0
0.6000 0.1933 0.0020 0 0 10 0
0.5860 0.1931 0.0023 0 0 10 0
0.6100 0.1927 0.0035 0 0 10 0
0.5980 0.1924 0.0039 0 0 10 0
0.5920 0.1921 0.0056 0 0 10 0
0.5920 0.1921 0.0056 0 0 10 0
0.5880 0.1909 0.0054 0 0 10 0
0.5880 0.1909 0.0054 0 0 10 0
0.5900 0.1904 0.0031 0 0 10 0
0.5740 0.1902 0.0043 0 0 10 0
0.5940 0.1900 0.0024 0 0 10 0
0.5940 0.1900 0.0020 0 0 10 0
0.5740 0.1900 0.0020 0 0 10 0
0.6020 0.1901 -0.0005 0 0 10 0
0.5940 0.1897 -0.0009 0 0 10 0
0.6000 0.1894 -0.0027 0 0 10 0
0.6000 0.1894 -0.0027 0 0 10 0
0.6060 0.1883 0.0008 0 0 10 0
0.6060 0.1883 0.0008 0 0 10 0
0.6100 0.1882 0.0012 0 0 10 0
0.6240 0.1874 0.0009 0 0 10 0
0.6160 0.1869 0.0007 0 0 10 0
0.5940 0.1861 0.0009 0 0 10 0
0.6080 0.1857 -0.0014 0 0 10 0
0.6080 0.1857 -0.0014 0 0 10 0
0.6040 0.1855 -0.0010 0 0 10 0
0.5960 0.1849 -0.0008 0 0 10 0
0.6240 0.1845 -0.0019 0 0 10 0
0.6240 0.1845 -0.0019 0 0 10 0
0.5920 0.1841 -0.0019 0 0 10 0
0.5840 0.1843 -0.0000 0 0 10 0
0.5820 0.1844 -0.0001 0 0 10 0
0.5940 0.1844 0.0007 0 0 10 0
0.6060 0.1842 -0.0040 0 0 10 0
0.5880 0.1836 -0.0021 0 0 10 0
0.5880 0.1836 -0.0021 0 0 10 0
0.5940 0.1832 -0.0026 0 0 10 0
0.6020 0.1819 0.0003 0 0 10 0
0.5940 0.1814 0.0014 0 0 10 0
0.5980 0.1804 0.0032 0 0 10 0
0.6160 0.1793 0.0036 0 0 10 0
0.6160 0.1793 0.0036 0 0 10 0
0.6000 0.1790 0.0036 0 0 10 0
0.6220 0.1786 0.0038 0 0 10 0
0.6200 0.1781 0.0031 0 0 10 0
0.6060 0.1781 0.0037 0 0 10 0
0.6060 0.1781 0.0037 0 0 10 0
0.6080 0.1780 0.0062 0 0 10 0
0.6160 0.1782 0.0062 0 0 10 0
0.5820 0.1784 0.0057 0 0 10 0
0.5900 0.1782 0.0059 0 0 10 0
0.6000 0.1777 0.0057 0 0 10 0
0.6000 0.1777 0.0057 0 0 10 0
0.6100 0.1769 0.0055 0 0 10 0
0.6100 0.1766 0.0056 0 0 10 0
0.6060 0.1758 0.0061 0 0 10 0
0.6140 0.1752 0.0051 0 0 10 0
0.6140 0.1752 0.0051 0 0 10 0
0.6280 0.1744 0.0043 0 0 10 0
0.6220 0.1734 0.0044 0 0 10 0
0.5960 0.1724 0.0048 0 0 10 0
0.6040 0.1710 -0.0006 0 0 10 0
0.6040 0.1710 -0.0006 0 0 10 0
0.6080 0.1710 -0.0044 0 0 10 0
0.5980 0.1711 -0.0026 0 0 10 0
0.6220 0.1708 -0.0014 0 0 10 0
0.6240 0.1707 -0.0023 0 0 10 0
0.6240 0.1707 -0.0023 0 0 10 0
0.6300 0.1696 0.0004 0 0 10 0
0.6080 0.1696 0.0004 0 0 10 0
0.6180 0.1691 0.0023 0 0 10 0
0.6320 0.1691 0.0023 0 0 10 0
0.6200 0.1690 0.0029 0 0 10 0
0.6220 0.1685 0.0048 0 0 10 0
0.6340 0.1674 0.0058 0 0 10 0
0.6060 0.1672 0.0072 0 0 10 0
0.6060 0.1672 0.0072 0 0 10 0
0.6020 0.1668 0.0070 0 0 10 0
0.6180 0.1656 0.0046 0 0 10 0
0.6220 0.1650 0.0042 0 0 10 0
0.6220 0.1645 0.0033 0 0 10 0
0.6220 0.1645 0.0033 0 0 10 0
0.6100 0.1638 0.0037 0 0 10 0
0.6060 0.1634 0.0058 0 0 10 0
0.6040 0.1630 0.0060 0 0 10 0
0.6020 0.1627 0.0094 0 0 10 0
0.6040 0.1619 0.0094 0 0 10 0
0.6340 0.1617 0.0087 0 0 10 0
0.6140 0.1610 0.0096 0 0 10 0
0.6240 0.1610 0.0088 0 0 10 0
0.6420 0.1606 0.0068 0 0 10 0
0.6420 0.1606 0.0068 0 0 10 0
0.6120 0.1604 0.0067 0 0 10 0
0.6100 0.1596 0.0067 0 0 10 0
0.6220 0.1590 0.0057 0 0 10 0
0.6180 0.1586 0.0049 0 0 10 0
0.6180 0.1586 0.0049 0 0 10 0
0.6180 0.1586 0.0043 0 0 10 0
0.6260 0.1582 0.0033 0 0 10 0
0.6220 0.1576 0.0042 0 0 10 0
0.6180 0.1574 0.0045 0 0 10 0
0.6140 0.1574 0.0021 0 0 10 0
0.6140 0.1574 0.0021 0 0 10 0
0.6200 0.1572 0.0027 0 0 10 0
0.5940 0.1572 0.0031 0 0 10 0
0.6100 0.1568 0.0033 0 0 10 0
0.6100 0.1568 0.0033 0 0 10 0
0.6240 0.1562 0.0060 0 0 10 0
0.6220 0.1551 0.0094 0 0 10 0
0.6220 0.1551 0.0094 0 0 10 0
0.6200 0.1543 0.0100 0 0 10 0
0.6180 0.1530 0.0108 0 0 10 0
0.6180 0.1530 0.0108 0 0 10 0
0.6280 0.1524 0.0113 0 0 10 0
0.6280 0.1524 0.0113 0 0 10 0
0.6260 0.1520 0.0116 0 0 10 0
0.6000 0.1521 0.0119 0 0 10 0
0.6280 0.1519 0.0130 0 0 10 0
0.6060 0.1513 0.0125 0 0 10 0
0.6060 0.1513 0.0125 0 0 10 0
0.6160 0.1501 0.0145 0 0 10 0
0.6000 0.1496 0.0142 0 0 10 0
0.5920 0.1494 0.0140 0 0 10 0
0.6080 0.1493 0.0149 0 0 10 0
0.6080 0.1491 0.0148 0 0 10 0
0.6080 0.1490 0.0169 0 0 10 0
0.6360 0.1490 0.0169 0 0 10 0
0.6260 0.1487 0.0162 0 0 10 0
0.6080 0.1483 0.0139 0 0 10 0
0.6160 0.1479 0.0103 0 0 10 0
0.6160 0.1471 0.0091 0 0 10 0
0.6140 0.1464 0.0097 0 0 10 0
0.6140 0.1464 0.0097 0 0 10 0
0.6140 0.1462 0.0093 0 0 10 0
0.6260 0.1455 0.0101 0 0 10 0
0.6180 0.1452 0.0072 0 0 10 0
0.6180 0.1452 0.0072 0 0 10 0
0.6160 0.1435 0.0066 0 0 10 0
0.6160 0.1435 0.0066 0 0 10 0
0.6160 0.1430 0.0067 0 0 10 0
0.6120 0.1424 0.0053 0 0 10 0
0.6120 0.1424 0.0053 0 0 10 0
0.6280 0.1416 0.0062 0 0 10 0
0.6320 0.1406 0.0044 0 0 10 0
0.6000 0.1406 0.0044 0 0 10 0
0.6160 0.1408 0.0061 0 0 10 0
0.6240 0.1406 0.0057 0 0 10 0
0.6240 0.1399 0.0033 0 0 10 0
0.6240 0.1399 0.0033 0 0 10 0
0.6120 0.1396 0.0033 0 0 10 0
0.5980 0.1395 0.0036 0 0 10 0
0.6180 0.1395 0.0027 0 0 10 0
0.6320 0.1385 0.0009 0 0 10 0
0.6320 0.1385 0.0009 0 0 10 0
0.6260 0.1379 0.0012 0 0 10 0
0.6260 0.1379 0.0012 0 0 10 0
0.6280 0.1374 0.0011 0 0 10 0
0.6280 0.1375 0.0009 0 0 10 0
0.6220 0.1373 0.0002 0 0 10 0
0.6220 0.1373 0.0002 0 0 10 0
0.6180 0.1372 0.0015 0 0 10 0
0.6060 0.1362 -0.0060 0 0 10 0
0.6180 0.1362 -0.0060 0 0 10 0
0.6040 0.1351 -0.0058 0 0 10 0
0.5900 0.1341 -0.0060 0 0 10 0
0.6080 0.1335 -0.0062 0 0 10 0
0.6080 0.1335 -0.0062 0 0 10 0
0.5760 0.1329 -0.0052 0 0 10 0
0.5980 0.1329 -0.0052 0 0 10 0
0.6200 0.1315 -0.0145 0 0 10 0
0.6200 0.1313 -0.0160 0 0 10 0
0.6240 0.1310 -0.0158 0 0 10 0
0.6240 0.1310 -0.0158 0 0 10 0
0.6300 0.1295 -0.0155 0 0 10 0
0.6120 0.1295 -0.0155 0 0 10 0
0.6020 0.1291 -0.0146 0 0 10 0
0.6220 0.1286 -0.0137 0 0 10 0
0.6200 0.1283 -0.0085 0 0 10 0
0.6100 0.1283 -0.0085 0 0 10 0
0.6100 0.1285 -0.0080 0 0 10 0
0.6340 0.1286 -0.0079 0 0 10 0
0.6200 0.1280 -0.0053 0 0 10 0
0.6200 0.1279 -0.0027 0 0 10 0
0.6480 0.1278 -0.0011 0 0 10 0
0.6480 0.1278 -0.0011 0 0 10 0
0.6300 0.1277 -0.0011 0 0 10 0
0.6400 0.1279 -0.0006 0 0 10 0
0.6300 0.1278 0.0002 0 0 10 0
0.6300 0.1278 0.0002 0 0 10 0
0.6240 0.1278 0.0004 0 0 10 0
0.6260 0.1267 -0.0046 0 0 10 0
0.6260 0.1267 -0.0046 0 0 10 0
0.6180 0.1263 -0.0035 0 0 10 0
0.6440 0.1252 -0.0014 0 0 10 0
0.6440 0.1252 -0.0014 0 0 10 0
0.6180 0.1241 0.0022 0 0 10 0
0.6200 0.1228 0.0035 0 0 10 0
0.6200 0.1221 0.0037 0 0 10 0
0.6240 0.1221 0.0037 0 0 10 0
0.6240 0.1216 0.0059 0 0 10 0
0.6380 0.1210 0.0062 0 0 10 0
0.6200 0.1208 0.0007 0 0 10 0
0.6240 0.1207 0.0010 0 0 10 0
0.6240 0.1208 -0.0019 0 0 10 0
0.6240 0.1208 -0.0019 0 0 10 0
0.6280 0.1207 -0.0017 0 0 10 0
0.6200 0.1204 -0.0019 0 0 10 0
0.6360 0.1203 -0.0003 0 0 10 0
0.6400 0.1202 -0.0002 0 0 10 0
0.6280 0.1207 0.0002 0 0 10 0
0.6280 0.1207 0.0002 0 0 10 0
0.6420 0.1200 0.0020 0 0 10 0
0.6180 0.1190 0.0043 0 0 10 0
0.6220 0.1183 0.0060 0 0 10 0
0.6500 0.1180 0.0052 0 0 10 0
0.6460 0.1177 0.0055 0 0 10 0
0.6460 0.1177 0.0055 0 0 10 0
0.6360 0.1173 0.0068 0 0 10 0
0.6360 0.1173 0.0069 0 0 10 0
0.6340 0.1169 0.0055 0 0 10 0
0.6380 0.1162 0.0060 0 0 10 0
0.6320 0.1154 0.0056 0 0 10 0
0.6260 0.1151 0.0056 0 0 10 0
0.6500 0.1146 0.0060 0 0 10 0
0.6380 0.1145 0.0033 0 0 10 0
0.6280 0.1140 0.0033 0 0 10 0
0.6240 0.1136 0.0015 0 0 10 0
0.6180 0.1133 0.0017 0 0 10 0
0.6180 0.1133 0.0017 0 0 10 0
0.6360 0.1131 0.0022 0 0 10 0
0.6360 0.1123 0.0024 0 0 10 0
0.6260 0.1114 0.0014 0 0 10 0
0.6380 0.1105 0.0017 0 0 10 0
0.6360 0.1098 0.0028 0 0 10 0
0.6260 0.1089 0.0031 0 0 10 0
0.6260 0.1089 0.0031 0 0 10 0
0.6180 0.1077 0.0030 0 0 10 0
0.6240 0.1075 0.0017 0 0 10 0
0.6040 0.1073 0.0020 0 0 10 0
0.6040 0.1073 0.0020 0 0 10 0
0.6040 0.1071 0.0008 0 0 10 0
0.6340 0.1069 0.0008 0 0 10 0
0.6280 0.1066 0.0008 0 0 10 0
0.6300 0.1059 -0.0002 0 0 10 0
0.6380 0.1048 -0.0025 0 0 10 0
0.6240 0.1040 -0.0024 0 0 10 0
0.6280 0.1034 -0.0026 0 0 10 0
0.6160 0.1031 -0.0037 0 0 10 0
0.6360 0.1030 -0.0032 0 0 10 0
0.6360 0.1030 -0.0032 0 0 10 0
0.6400 0.1020 -0.0039 0 0 10 0
0.6320 0.1014 -0.0038 0 0 10 0
0.6320 0.1014 -0.0038 0 0 10 0
0.6280 0.0998 -0.0039 0 0 10 0
0.6280 0.0998 -0.0039 0 0 10 0
0.6420 0.0991 -0.0074 0 0 10 0
0.6360 0.0983 -0.0079 0 0 10 0
0.6360 0.0983 -0.0085 0 0 10 0
0.6400 0.0983 -0.0085 0 0 10 0
0.6280 0.0986 -0.0113 0 0 10 0
0.6360 0.0983 -0.0113 0 0 10 0
0.6320 0.0982 -0.0101 0 0 10 0
0.6320 0.0981 -0.0102 0 0 10 0
0.6260 0.0982 -0.0112 0 0 10 0
0.6280 0.0983 -0.0106 0 0 10 0
0.6500 0.0976 -0.0075 0 0 10 0
0.6300 0.0970 -0.0069 0 0 10 0
0.6160 0.0968 -0.0093 0 0 10 0
0.6160 0.0968 -0.0093 0 0 10 0
0.6360 0.0957 -0.0102 0 0 10 0
0.6520 0.0960 -0.0098 0 0 10 0
0.6520 0.0960 -0.0098 0 0 10 0
0.6420 0.0960 -0.0065 0 0 10 0
0.6560 0.0958 -0.0048 0 0 10 0
0.6560 0.0958 -0.0048 0 0 10 0
0.6440 0.0953 -0.0059 0 0 10 0
0.6300 0.0946 -0.0035 0 0 10 0
0.6460 0.0942 -0.0017 0 0 10 0
0.6460 0.0942 -0.0017 0 0 10 0
0.6520 0.0942 0.0003 0 0 10 0
0.6520 0.0942 0.0003 0 0 10 0
0.6640 0.0939 0.0008 0 0 10 0
0.6620 0.0937 0.0024 0 0 10 0
0.6640 0.0930 0.0004 0 0 10 0
0.6520 0.0925 0.0001 0 0 10 0
0.6380 0.0917 -0.0014 0 0 10 0
0.6400 0.0910 -0.0014 0 0 10 0
0.6480 0.0904 -0.0043 0 0 10 0
0.6500 0.0892 -0.0036 0 0 10 0
0.6500 0.0892 -0.0036 0 0 10 0
0.6600 0.0882 -0.0025 0 0 10 0
0.6320 0.0882 -0.0025 0 0 10 0
0.6420 0.0878 0.0014 0 0 10 0
0.6520 0.0880 0.0043 0 0 10 0
0.6520 0.0880 0.0043 0 0 10 0
0.6420 0.0879 0.0033 0 0 10 0
0.6420 0.0877 0.0035 0 0 10 0
0.6380 0.0877 0.0035 0 0 10 0
0.6520 0.0871 0.0036 0 0 10 0
0.6560 0.0864 0.0009 0 0 10 0
0.6560 0.0864 0.0009 0 0 10 0
0.6400 0.0852 0.0020 0 0 10 0
0.6640 0.0854 0.0017 0 0 10 0
0.6700 0.0851 -0.0017 0 0 10 0
0.6740 0.0853 -0.0031 0 0 10 0
0.6640 0.0842 -0.0069 0 0 10 0
0.6640 0.0842 -0.0069 0 0 10 0
0.6820 0.0836 -0.0077 0 0 10 0
0.6560 0.0820 -0.0106 0 0 10 0
0.6600 0.0810 -0.0129 0 0 10 0
0.6600 0.0810 -0.0129 0 0 10 0
0.6580 0.0803 -0.0104 0 0 10 0
0.6520 0.0801 -0.0117 0 0 10 0
0.6820 0.0804 -0.0115 0 0 10 0
0.6820 0.0808 -0.0116 0 0 10 0
0.6820 0.0808 -0.0116 0 0 10 0
0.6500 0.0809 -0.0143 0 0 10 0
0.6500 0.0809 -0.0143 0 0 10 0
0.6580 0.0799 -0.0139 0 0 10 0
0.6640 0.0793 -0.0106 0 0 10 0
0.6640 0.0788 -0.0106 0 0 10 0
0.6640 0.0788 -0.0106 0 0 10 0
0.6580 0.0780 -0.0146 0 0 10 0
0.6620 0.0774 -0.0141 0 0 10 0
0.6820 0.0773 -0.0137 0 0 10 0
0.6460 0.0767 -0.0132 0 0 10 0
0.6820 0.0765 -0.0128 0 0 10 0
0.6820 0.0765 -0.0128 0 0 10 0
0.6680 0.0759 -0.0117 0 0 10 0
0.6680 0.0759 -0.0117 0 0 10 0
0.6740 0.0751 -0.0081 0 0 10 0
0.6780 0.0748 -0.0062 0 0 10 0
0.6780 0.0748 -0.0062 0 0 10 0
0.6720 0.0749 -0.0072 0 0 10 0
0.6560 0.0744 -0.0073 0 0 10 0
0.6680 0.0740 -0.0091 0 0 10 0
0.6780 0.0735 -0.0082 0 0 10 0
0.6740 0.0732 -0.0076 0 0 10 0
0.6740 0.0732 -0.0076 0 0 10 0
0.6780 0.0727 -0.0071 0 0 10 0
0.6680 0.0726 -0.0056 0 0 10 0
0.6800 0.0722 0.0031 0 0 10 0
0.6700 0.0714 0.0017 0 0 10 0
0.6700 0.0714 0.0017 0 0 10 0
0.6680 0.0705 0.0015 0 0 10 0
0.6680 0.0705 0.0015 0 0 10 0
0.6780 0.0699 0.0028 0 0 10 0
0.6600 0.0694 0.0026 0 0 10 0
0.6640 0.0687 0.0027 0 0 10 0
0.6640 0.0687 0.0027 0 0 10 0
0.6760 0.0678 0.0046 0 0 10 0
0.6820 0.0671 0.0051 0 0 10 0
0.6720 0.0664 0.0040 0 0 10 0
0.6960 0.0662 0.0040 0 0 10 0
0.6880 0.0660 0.0041 0 0 10 0
0.6880 0.0660 0.0041 0 0 10 0
0.6800 0.0654 0.0065 0 0 10 0
0.6860 0.0648 0.0062 0 0 10 0
0.6680 0.0643 0.0104 0 0 10 0
0.6720 0.0641 0.0108 0 0 10 0
0.6720 0.0641 0.0108 0 0 10 0
0.6940 0.0640 0.0070 0 0 10 0
0.6940 0.0637 0.0078 0 0 10 0
0.6960 0.0634 0.0072 0 0 10 0
0.6880 0.0628 0.0058 0 0 10 0
0.6760 0.0625 0.0050 0 0 10 0
0.6920 0.0621 0.0076 0 0 10 0
0.6920 0.0621 0.0076 0 0 10 0
0.6820 0.0618 0.0075 0 0 10 0
0.6940 0.0615 0.0070 0 0 10 0
0.6900 0.0610 0.0072 0 0 10 0
0.6940 0.0604 0.0082 0 0 10 0
0.6860 0.0593 0.0071 0 0 10 0
0.6720 0.0587 0.0073 0 0 10 0
0.6880 0.0587 0.0125 0 0 10 0
0.6880 0.0587 0.0125 0 0 10 0
0.6920 0.0588 0.0120 0 0 10 0
0.6820 0.0585 0.0118 0 0 10 0
0.6800 0.0577 0.0085 0 0 10 0
0.6880 0.0577 0.0084 0 0 10 0
0.6960 0.0578 0.0075 0 0 10 0
0.6960 0.0578 0.0075 0 0 10 0
0.6900 0.0577 0.0069 0 0 10 0
0.6840 0.0575 0.0086 0 0 10 0
0.7000 0.0574 0.0082 0 0 10 0
0.6840 0.0569 0.0069 0 0 10 0
0.6760 0.0564 0.0073 0 0 10 0
0.6760 0.0564 0.0073 0 0 10 0
0.6960 0.0560 0.0143 0 0 10 0
0.7040 0.0553 0.0142 0 0 10 0
0.6880 0.0550 0.0124 0 0 10 0
0.6900 0.0555 0.0095 0 0 10 0
0.6940 0.0555 0.0057 0 0 10 0
0.6940 0.0555 0.0057 0 0 10 0
0.6980 0.0553 0.0093 0 0 10 0
0.6940 0.0550 0.0088 0 0 10 0
0.6780 0.0541 0.0091 0 0 10 0
0.6940 0.0537 0.0081 0 0 10 0
0.6940 0.0537 0.0081 0 0 10 0
0.7040 0.0531 0.0078 0 0 10 0
0.6960 0.0528 0.0064 0 0 10 0
0.7200 0.0522 0.0062 0 0 10 0
0.7080 0.0517 0.0076 0 0 10 0
0.7080 0.0517 0.0076 0 0 10 0
0.7140 0.0511 0.0066 0 0 10 0
0.7120 0.0502 0.0043 0 0 10 0
0.7200 0.0495 0.0025 0 0 10 0
0.7140 0.0490 0.0019 0 0 10 0
0.7140 0.0490 0.0019 0 0 10 0
0.7100 0.0492 0.0031 0 0 10 0
0.7240 0.0494 -0.0007 0 0 10 0
0.7240 0.0494 -0.0007 0 0 10 0
0.7040 0.0485 -0.0005 0 0 10 0
0.6980 0.0477 -0.0006 0 0 10 0
0.6980 0.0477 -0.0006 0 0 10 0
0.7040 0.0472 -0.0014 0 0 10 0
0.7060 0.0468 -0.0011 0 0 10 0
0.7140 0.0465 0.0047 0 0 10 0
0.7000 0.0462 0.0051 0 0 10 0
0.7060 0.0452 0.0042 0 0 10 0
0.7060 0.0443 0.0046 0 0 10 0
0.7180 0.0443 0.0046 0 0 10 0
0.7220 0.0439 0.0032 0 0 10 0
0.7140 0.0436 0.0028 0 0 10 0
0.7080 0.0438 0.0022 0 0 10 0
0.7080 0.0438 0.0022 0 0 10 0
0.7300 0.0427 0.0001 0 0 10 0
0.7260 0.0423 0.0009 0 0 10 0
0.7260 0.0423 0.0009 0 0 10 0
0.7300 0.0414 0.0021 0 0 10 0
0.7160 0.0416 0.0064 0 0 10 0
0.7160 0.0416 0.0064 0 0 10 0
0.7260 0.0412 0.0068 0 0 10 0
0.7240 0.0399 0.0083 0 0 10 0
0.7240 0.0399 0.0083 0 0 10 0
0.7220 0.0392 0.0091 0 0 10 0
0.7060 0.0392 0.0091 0 0 10 0
0.7040 0.0390 0.0112 0 0 10 0
0.7000 0.0387 0.0096 0 0 10 0
0.7260 0.0388 0.0087 0 0 10 0
0.7160 0.0388 0.0091 0 0 10 0
0.7160 0.0388 0.0091 0 0 10 0
0.6980 0.0383 0.0093 0 0 10 0
0.7120 0.0376 0.0086 0 0 10 0
0.7220 0.0371 0.0100 0 0 10 0
0.7220 0.0371 0.0100 0 0 10 0
0.7080 0.0354 0.0104 0 0 10 0
0.7080 0.0353 0.0107 0 0 10 0
0.7220 0.0353 0.0107 0 0 10 0
0.7220 0.0353 0.0107 0 0 10 0
0.7320 0.0344 0.0082 0 0 10 0
0.7400 0.0338 0.0072 0 0 10 0
0.7400 0.0338 0.0072 0 0 10 0
0.7240 0.0333 0.0082 0 0 10 0
0.7280 0.0328 0.0088 0 0 10 0
0.7160 0.0325 0.0082 0 0 10 0
0.7160 0.0325 0.0082 0 0 10 0
0.7280 0.0314 0.0048 0 0 10 0
0.7280 0.0314 0.0048 0 0 10 0
0.7080 0.0312 0.0064 0 0 10 0
0.7200 0.0314 0.0064 0 0 10 0
0.7260 0.0311 0.0090 0 0 10 0
0.7220 0.0309 0.0066 0 0 10 0
0.7220 0.0309 0.0066 0 0 10 0
0.7020 0.0308 0.0058 0 0 10 0
0.7220 0.0306 0.0062 0 0 10 0
0.7300 0.0299 0.0057 0 0 10 0
0.7300 0.0299 0.0057 0 0 10 0
0.7220 0.0295 0.0035 0 0 10 0
0.7220 0.0295 0.0035 0 0 10 0
0.7240 0.0288 0.0030 0 0 10 0
0.7120 0.0286 0.0042 0 0 10 0
0.7120 0.0283 0.0043 0 0 10 0
0.7420 0.0276 0.0067 0 0 10 0
0.7420 0.0276 0.0067 0 0 10 0
0.7460 0.0270 0.0059 0 0 10 0
0.7380 0.0265 0.0076 0 0 10 0
0.7240 0.0259 0.0068 0 0 10 0
0.7140 0.0258 0.0032 0 0 10 0
0.7180 0.0256 0.0028 0 0 10 0
0.7180 0.0256 0.0028 0 0 10 0
0.7300 0.0254 0.0015 0 0 10 0
0.7420 0.0254 0.0006 0 0 10 0
0.7320 0.0250 0.0022 0 0 10 0
0.7340 0.0237 0.0021 0 0 10 0
0.7340 0.0237 0.0021 0 0 10 0
0.7440 0.0225 0.0024 0 0 10 0
0.7440 0.0225 0.0024 0 0 10 0
0.7620 0.0229 0.0012 0 0 10 0
0.7680 0.0230 0.0005 0 0 10 0
0.7500 0.0227 0.0014 0 0 10 0
0.7460 0.0223 0.0035 0 0 10 0
0.7460 0.0223 0.0035 0 0 10 0
0.7500 0.0224 0.0062 0 0 10 0
0.7500 0.0224 0.0062 0 0 10 0
0.7460 0.0220 0.0092 0 0 10 0
0.7460 0.0220 0.0092 0 0 10 0
0.7320 0.0209 0.0119 0 0 10 0
0.7500 0.0199 0.0102 0 0 10 0
0.7360 0.0195 0.0119 0 0 10 0
0.7360 0.0190 0.0134 0 0 10 0
0.7180 0.0186 0.0111 0 0 10 0
0.7180 0.0186 0.0111 0 0 10 0
0.7340 0.0178 0.0105 0 0 10 0
0.7340 0.0178 0.0105 0 0 10 0
0.7380 0.0171 0.0101 0 0 10 0
0.7180 0.0164 0.0098 0 0 10 0
0.7380 0.0156 0.0093 0 0 10 0
0.7380 0.0156 0.0093 0 0 10 0
0.7540 0.0148 0.0105 0 0 10 0
0.7260 0.0147 0.0113 0 0 10 0
0.7340 0.0147 0.0078 0 0 10 0
0.7500 0.0150 0.0077 0 0 10 0
0.7500 0.0150 0.0077 0 0 10 0
0.7500 0.0136 0.0079 0 0 10 0
0.7500 0.0136 0.0079 0 0 10 0
0.7520 0.0121 0.0073 0 0 10 0
0.7540 0.0115 0.0071 0 0 10 0
0.7260 0.0111 0.0042 0 0 10 0
0.7520 0.0105 0.0042 0 0 10 0
0.7520 0.0105 0.0042 0 0 10 0
0.7460 0.0098 0.0044 0 0 10 0
0.7600 0.0096 0.0049 0 0 10 0
0.7540 0.0100 0.0051 0 0 10 0
0.7640 0.0093 0.0057 0 0 10 0
0.7640 0.0093 0.0057 0 0 10 0
0.7500 0.0082 0.0058 0 0 10 0
0.7640 0.0070 0.0059 0 0 10 0
0.7640 0.0070 0.0059 0 0 10 0
0.7640 0.0072 0.0052 0 0 10 0
0.7740 0.0071 0.0059 0 0 10 0
0.7680 0.0067 0.0070 0 0 10 0
0.7360 0.0065 0.0067 0 0 10 0
0.7500 0.0059 0.0123 0 0 10 0
0.7560 0.0057 0.0134 0 0 10 0
0.7560 0.0057 0.0134 0 0 10 0
