0.5580 0.3596 0.0003 0 0 10 0
0.5480 0.3594 0.0018 0 0 10 0
0.5460 0.3596 0.0017 0 0 10 0
0.5440 0.3602 0.0024 0 0 10 0
0.5440 0.3595 0.0020 0 0 10 0
0.5580 0.3591 0.0030 0 0 10 0
0.5340 0.3590 0.0032 0 0 10 0
0.5340 0.3590 0.0032 0 0 10 0
0.5340 0.3587 0.0002 0 0 10 0
0.5540 0.3591 0.0011 0 0 10 0
0.5540 0.3591 0.0011 0 0 10 0
0.5320 0.3594 0.0009 0 0 10 0
0.5460 0.3594 0.0009 0 0 10 0
0.5480 0.3593 0.0007 0 0 10 0
0.5320 0.3591 0.0008 0 0 10 0
0.5240 0.3588 0.0010 0 0 10 0
0.5200 0.3583 -0.0030 0 0 10 0
0.5200 0.3581 -0.0023 0 0 10 0
0.5280 0.3581 -0.0023 0 0 10 0
0.5360 0.3575 -0.0020 0 0 10 0
0.5240 0.3570 -0.0031 0 0 10 0
0.5540 0.3566 -0.0035 0 0 10 0
0.5460 0.3559 -0.0029 0 0 10 0
0.5180 0.3555 -0.0027 0 0 10 0
0.5400 0.3554 -0.0029 0 0 10 0
0.5320 0.3552 -0.0022 0 0 10 0
0.5400 0.3547 -0.0003 0 0 10 0
0.5380 0.3546 -0.0028 0 0 10 0
0.5520 0.3538 -0.0028 0 0 10 0
0.5520 0.3538 -0.0028 0 0 10 0
0.5280 0.3534 -0.0035 0 0 10 0
0.5340 0.3530 -0.0035 0 0 10 0
0.5300 0.3525 -0.0056 0 0 10 0
0.5140 0.3517 -0.0056 0 0 10 0
0.5140 0.3517 -0.0056 0 0 10 0
0.5300 0.3505 -0.0029 0 0 10 0
0.5300 0.3505 -0.0029 0 0 10 0
0.5480 0.3505 -0.0037 0 0 10 0
0.5120 0.3508 -0.0032 0 0 10 0
0.5320 0.3500 -0.0058 0 0 10 0
0.5320 0.3500 -0.0058 0 0 10 0
0.5340 0.3500 -0.0107 0 0 10 0
0.5340 0.3496 -0.0107 0 0 10 0
0.5420 0.3492 -0.0083 0 0 10 0
0.5500 0.3488 -0.0075 0 0 10 0
0.5240 0.3484 -0.0070 0 0 10 0
0.5240 0.3484 -0.0070 0 0 10 0
0.5380 0.3481 -0.0031 0 0 10 0
0.5440 0.3482 -0.0069 0 0 10 0
0.5380 0.3480 -0.0066 0 0 10 0
0.5200 0.3470 -0.0037 0 0 10 0
0.5360 0.3462 -0.0035 0 0 10 0
0.5480 0.3457 -0.0026 0 0 10 0
0.5180 0.3458 -0.0029 0 0 10 0
0.5380 0.3455 -0.0010 0 0 10 0
0.5260 0.3448 -0.0029 0 0 10 0
0.5260 0.3448 -0.0029 0 0 10 0
0.5340 0.3440 -0.0036 0 0 10 0
0.5320 0.3436 -0.0049 0 0 10 0
0.5420 0.3434 -0.0026 0 0 10 0
0.5420 0.3434 -0.0026 0 0 10 0
0.5220 0.3421 -0.0021 0 0 10 0
0.5300 0.3417 -0.0020 0 0 10 0
0.5300 0.3417 -0.0020 0 0 10 0
0.5340 0.3413 -0.0011 0 0 10 0
0.5160 0.3413 0.0004 0 0 10 0
0.5420 0.3410 0.0003 0 0 10 0
0.5420 0.3397 -0.0010 0 0 10 0
0.5320 0.3389 -0.0009 0 0 10 0
0.5320 0.3389 -0.0009 0 0 10 0
0.5280 0.3379 -0.0011 0 0 10 0
0.5360 0.3376 0.0015 0 0 10 0
0.5480 0.3372 0.0017 0 0 10 0
0.5480 0.3372 0.0017 0 0 10 0
0.5380 0.3368 0.0030 0 0 10 0
0.5320 0.3365 0.0033 0 0 10 0
0.5320 0.3365 0.0033 0 0 10 0
0.5300 0.3360 0.0018 0 0 10 0
0.5200 0.3357 0.0025 0 0 10 0
0.5540 0.3354 0.0030 0 0 10 0
0.5540 0.3354 0.0030 0 0 10 0
0.5160 0.3344 0.0014 0 0 10 0
0.5160 0.3344 0.0014 0 0 10 0
0.5080 0.3340 0.0025 0 0 10 0
0.5220 0.3348 0.0029 0 0 10 0
0.5280 0.3350 0.0048 0 0 10 0
0.5480 0.3344 0.0056 0 0 10 0
0.5480 0.3344 0.0056 0 0 10 0
0.5400 0.3339 0.0073 0 0 10 0
0.5240 0.3333 0.0079 0 0 10 0
0.5240 0.3334 0.0096 0 0 10 0
0.5240 0.3334 0.0096 0 0 10 0
0.5340 0.3320 0.0083 0 0 10 0
0.5340 0.3320 0.0083 0 0 10 0
0.5500 0.3308 0.0064 0 0 10 0
0.5360 0.3300 0.0062 0 0 10 0
0.5380 0.3295 0.0113 0 0 10 0
0.5380 0.3295 0.0113 0 0 10 0
0.5420 0.3291 0.0115 0 0 10 0
0.5360 0.3289 0.0107 0 0 10 0
0.5200 0.3282 0.0116 0 0 10 0
0.5220 0.3280 0.0119 0 0 10 0
0.5220 0.3280 0.0119 0 0 10 0
0.5300 0.3281 0.0116 0 0 10 0
0.5380 0.3279 0.0111 0 0 10 0
0.5260 0.3275 0.0111 0 0 10 0
0.5240 0.3269 0.0098 0 0 10 0
0.5240 0.3262 0.0095 0 0 10 0
0.5280 0.3252 0.0090 0 0 10 0
0.5280 0.3252 0.0090 0 0 10 0
0.5500 0.3245 0.0099 0 0 10 0
0.5400 0.3244 0.0085 0 0 10 0
0.5240 0.3241 0.0081 0 0 10 0
0.5340 0.3240 0.0072 0 0 10 0
0.5340 0.3240 0.0072 0 0 10 0
0.5380 0.3239 0.0034 0 0 10 0
0.5380 0.3239 0.0034 0 0 10 0
0.5360 0.3233 0.0028 0 0 10 0
0.5500 0.3228 0.0023 0 0 10 0
0.5440 0.3223 0.0024 0 0 10 0
0.5440 0.3223 0.0024 0 0 10 0
0.5440 0.3214 0.0007 0 0 10 0
0.5400 0.3211 0.0010 0 0 10 0
0.5520 0.3205 0.0014 0 0 10 0
0.5820 0.3199 0.0014 0 0 10 0
0.5600 0.3199 0.0023 0 0 10 0
0.5600 0.3199 0.0023 0 0 10 0
0.5600 0.3195 0.0024 0 0 10 0
0.5600 0.3195 0.0024 0 0 10 0
0.5260 0.3191 0.0013 0 0 10 0
0.5260 0.3191 0.0013 0 0 10 0
0.5520 0.3185 0.0022 0 0 10 0
0.5360 0.3178 -0.0000 0 0 10 0
0.5360 0.3178 -0.0000 0 0 10 0
0.5580 0.3172 -0.0001 0 0 10 0
0.5340 0.3171 0.0009 0 0 10 0
0.5520 0.3170 0.0007 0 0 10 0
0.5540 0.3167 -0.0031 0 0 10 0
0.5480 0.3167 -0.0035 0 0 10 0
0.5400 0.3161 -0.0045 0 0 10 0
0.5360 0.3153 -0.0041 0 0 10 0
0.5360 0.3153 -0.0041 0 0 10 0
0.5400 0.3144 -0.0024 0 0 10 0
0.5240 0.3137 0.0007 0 0 10 0
0.5560 0.3136 0.0007 0 0 10 0
0.5340 0.3134 0.0018 0 0 10 0
0.5480 0.3133 0.0014 0 0 10 0
0.5480 0.3133 0.0014 0 0 10 0
0.5500 0.3130 0.0048 0 0 10 0
0.5660 0.3121 0.0048 0 0 10 0
0.5380 0.3111 0.0057 0 0 10 0
0.5380 0.3111 0.0057 0 0 10 0
0.5480 0.3093 0.0085 0 0 10 0
0.5460 0.3093 0.0082 0 0 10 0
0.5460 0.3093 0.0082 0 0 10 0
0.5380 0.3090 0.0089 0 0 10 0
0.5360 0.3084 0.0085 0 0 10 0
0.5500 0.3077 0.0079 0 0 10 0
0.5500 0.3077 0.0079 0 0 10 0
0.5320 0.3068 0.0072 0 0 10 0
0.5500 0.3058 0.0049 0 0 10 0
0.5380 0.3057 0.0049 0 0 10 0
0.5300 0.3055 0.0048 0 0 10 0
0.5420 0.3055 0.0049 0 0 10 0
0.5420 0.3055 0.0049 0 0 10 0
0.5580 0.3051 0.0061 0 0 10 0
0.5420 0.3043 0.0054 0 0 10 0
0.5460 0.3036 0.0039 0 0 10 0
0.5460 0.3024 0.0039 0 0 10 0
0.5460 0.3024 0.0039 0 0 10 0
0.5440 0.3021 0.0056 0 0 10 0
0.5620 0.3017 0.0041 0 0 10 0
0.5540 0.3017 0.0054 0 0 10 0
0.5420 0.3017 0.0064 0 0 10 0
0.5560 0.3015 0.0059 0 0 10 0
0.5560 0.3015 0.0059 0 0 10 0
0.5400 0.3009 0.0056 0 0 10 0
0.5440 0.3005 0.0058 0 0 10 0
0.5600 0.3006 0.0057 0 0 10 0
0.5540 0.3002 0.0036 0 0 10 0
0.5480 0.3002 0.0034 0 0 10 0
0.5480 0.3002 0.0034 0 0 10 0
0.5400 0.2998 0.0045 0 0 10 0
0.5420 0.2991 0.0046 0 0 10 0
0.5340 0.2981 0.0047 0 0 10 0
0.5580 0.2975 0.0044 0 0 10 0
0.5460 0.2972 0.0052 0 0 10 0
0.5460 0.2972 0.0052 0 0 10 0
0.5460 0.2975 0.0075 0 0 10 0
0.5460 0.2975 0.0075 0 0 10 0
0.5520 0.2968 0.0104 0 0 10 0
0.5620 0.2956 0.0099 0 0 10 0
0.5400 0.2946 0.0104 0 0 10 0
0.5600 0.2941 0.0107 0 0 10 0
0.5360 0.2937 0.0108 0 0 10 0
0.5360 0.2937 0.0108 0 0 10 0
0.5500 0.2928 0.0084 0 0 10 0
0.5480 0.2925 0.0072 0 0 10 0
0.5600 0.2925 0.0072 0 0 10 0
0.5440 0.2924 0.0066 0 0 10 0
0.5480 0.2912 0.0095 0 0 10 0
0.5480 0.2912 0.0095 0 0 10 0
0.5480 0.2907 0.0100 0 0 10 0
0.5380 0.2899 0.0105 0 0 10 0
0.5400 0.2897 0.0077 0 0 10 0
0.5420 0.2902 0.0095 0 0 10 0
0.5600 0.2906 0.0103 0 0 10 0
0.5320 0.2904 0.0104 0 0 10 0
0.5320 0.2904 0.0104 0 0 10 0
0.5380 0.2903 0.0077 0 0 10 0
0.5360 0.2891 0.0076 0 0 10 0
0.5460 0.2877 0.0071 0 0 10 0
0.5520 0.2876 0.0068 0 0 10 0
0.5400 0.2872 0.0069 0 0 10 0
0.5500 0.2873 0.0076 0 0 10 0
0.5500 0.2873 0.0076 0 0 10 0
0.5520 0.2867 0.0053 0 0 10 0
0.5520 0.2865 0.0058 0 0 10 0
0.5520 0.2865 0.0058 0 0 10 0
0.5480 0.2865 0.0052 0 0 10 0
0.5340 0.2861 0.0028 0 0 10 0
0.5360 0.2863 0.0027 0 0 10 0
0.5360 0.2863 0.0027 0 0 10 0
0.5660 0.2862 0.0032 0 0 10 0
0.5580 0.2856 0.0027 0 0 10 0
0.5460 0.2851 0.0028 0 0 10 0
0.5640 0.2847 0.0060 0 0 10 0
0.5360 0.2847 0.0057 0 0 10 0
0.5360 0.2847 0.0057 0 0 10 0
0.5440 0.2841 0.0057 0 0 10 0
0.5460 0.2842 0.0063 0 0 10 0
0.5520 0.2837 0.0060 0 0 10 0
0.5500 0.2832 0.0066 0 0 10 0
0.5420 0.2823 0.0067 0 0 10 0
0.5420 0.2823 0.0067 0 0 10 0
0.5240 0.2819 0.0075 0 0 10 0
0.5240 0.2818 0.0070 0 0 10 0
0.5380 0.2817 0.0069 0 0 10 0
0.5460 0.2818 0.0062 0 0 10 0
0.5400 0.2814 0.0055 0 0 10 0
0.5420 0.2809 0.0007 0 0 10 0
0.5420 0.2809 0.0007 0 0 10 0
0.5360 0.2797 0.0011 0 0 10 0
0.5360 0.2797 0.0011 0 0 10 0
0.5420 0.2792 0.0022 0 0 10 0
0.5580 0.2784 0.0002 0 0 10 0
0.5300 0.2780 -0.0003 0 0 10 0
0.5460 0.2775 -0.0004 0 0 10 0
0.5460 0.2775 -0.0004 0 0 10 0
0.5180 0.2771 -0.0022 0 0 10 0
0.5520 0.2765 0.0019 0 0 10 0
0.5520 0.2765 0.0019 0 0 10 0
0.5420 0.2759 0.0020 0 0 10 0
0.5600 0.2756 0.0058 0 0 10 0
0.5200 0.2756 0.0057 0 0 10 0
0.5200 0.2756 0.0057 0 0 10 0
0.5440 0.2754 0.0063 0 0 10 0
0.5380 0.2751 0.0065 0 0 10 0
0.5380 0.2751 0.0065 0 0 10 0
0.5280 0.2744 0.0084 0 0 10 0
0.5320 0.2738 0.0085 0 0 10 0
0.5320 0.2730 0.0077 0 0 10 0
0.5420 0.2727 0.0076 0 0 10 0
0.5560 0.2727 0.0086 0 0 10 0
0.5560 0.2727 0.0086 0 0 10 0
0.5400 0.2723 0.0074 0 0 10 0
0.5400 0.2718 0.0029 0 0 10 0
0.5460 0.2713 0.0033 0 0 10 0
0.5420 0.2705 0.0063 0 0 10 0
0.5560 0.2696 0.0029 0 0 10 0
0.5560 0.2696 0.0029 0 0 10 0
0.5380 0.2689 0.0036 0 0 10 0
0.5360 0.2684 0.0042 0 0 10 0
0.5380 0.2680 0.0054 0 0 10 0
0.5480 0.2670 0.0058 0 0 10 0
0.5180 0.2665 0.0078 0 0 10 0
0.5200 0.2665 0.0072 0 0 10 0
0.5200 0.2665 0.0072 0 0 10 0
0.5280 0.2666 0.0068 0 0 10 0
0.5220 0.2667 0.0070 0 0 10 0
0.5360 0.2667 0.0052 0 0 10 0
0.5460 0.2664 0.0050 0 0 10 0
0.5460 0.2664 0.0050 0 0 10 0
0.5280 0.2656 0.0051 0 0 10 0
0.5280 0.2656 0.0051 0 0 10 0
0.5480 0.2651 0.0065 0 0 10 0
0.5500 0.2648 0.0058 0 0 10 0
0.5520 0.2643 0.0041 0 0 10 0
0.5540 0.2636 0.0039 0 0 10 0
0.5540 0.2636 0.0039 0 0 10 0
0.5540 0.2626 0.0051 0 0 10 0
0.5540 0.2626 0.0051 0 0 10 0
0.5400 0.2622 0.0044 0 0 10 0
0.5500 0.2621 0.0051 0 0 10 0
0.5560 0.2618 0.0037 0 0 10 0
0.5380 0.2614 0.0023 0 0 10 0
0.5380 0.2614 0.0023 0 0 10 0
0.5220 0.2603 0.0064 0 0 10 0
0.5220 0.2603 0.0064 0 0 10 0
0.5460 0.2597 0.0054 0 0 10 0
0.5520 0.2592 0.0058 0 0 10 0
0.5460 0.2587 0.0067 0 0 10 0
0.5460 0.2583 0.0069 0 0 10 0
0.5460 0.2583 0.0069 0 0 10 0
0.5320 0.2574 0.0067 0 0 10 0
0.5320 0.2574 0.0067 0 0 10 0
0.5480 0.2562 0.0063 0 0 10 0
0.5680 0.2558 0.0060 0 0 10 0
0.5500 0.2558 0.0053 0 0 10 0
0.5500 0.2558 0.0053 0 0 10 0
0.5560 0.2555 0.0043 0 0 10 0
0.5720 0.2554 0.0053 0 0 10 0
0.5860 0.2552 0.0050 0 0 10 0
0.5520 0.2545 0.0035 0 0 10 0
0.5520 0.2545 0.0035 0 0 10 0
0.5320 0.2541 0.0032 0 0 10 0
0.5340 0.2533 0.0049 0 0 10 0
0.5300 0.2525 0.0042 0 0 10 0
0.5460 0.2523 0.0026 0 0 10 0
0.5340 0.2524 0.0025 0 0 10 0
0.5340 0.2524 0.0025 0 0 10 0
0.5440 0.2525 0.0029 0 0 10 0
0.5360 0.2521 0.0024 0 0 10 0
0.5480 0.2512 0.0034 0 0 10 0
0.5500 0.2502 0.0040 0 0 10 0
0.5360 0.2493 0.0054 0 0 10 0
0.5420 0.2487 0.0062 0 0 10 0
0.5420 0.2487 0.0062 0 0 10 0
0.5560 0.2484 0.0061 0 0 10 0
0.5400 0.2485 0.0076 0 0 10 0
0.5540 0.2476 0.0066 0 0 10 0
0.5660 0.2470 0.0036 0 0 10 0
0.5540 0.2460 0.0031 0 0 10 0
0.5600 0.2458 0.0054 0 0 10 0
0.5600 0.2457 0.0054 0 0 10 0
0.5600 0.2457 0.0054 0 0 10 0
0.5540 0.2450 0.0046 0 0 10 0
0.5740 0.2447 0.0070 0 0 10 0
0.5800 0.2446 0.0079 0 0 10 0
0.5800 0.2446 0.0079 0 0 10 0
0.5780 0.2438 0.0067 0 0 10 0
0.5620 0.2436 0.0100 0 0 10 0
0.5680 0.2432 0.0100 0 0 10 0
0.5600 0.2431 0.0085 0 0 10 0
0.5720 0.2429 0.0079 0 0 10 0
0.5720 0.2429 0.0079 0 0 10 0
0.5700 0.2426 0.0091 0 0 10 0
0.5660 0.2423 0.0091 0 0 10 0
0.5720 0.2420 0.0049 0 0 10 0
0.5560 0.2420 0.0046 0 0 10 0
0.5560 0.2416 0.0054 0 0 10 0
0.5620 0.2416 0.0054 0 0 10 0
0.5640 0.2414 0.0056 0 0 10 0
0.5760 0.2405 0.0048 0 0 10 0
0.5740 0.2399 0.0045 0 0 10 0
0.5620 0.2393 0.0064 0 0 10 0
0.5600 0.2390 0.0060 0 0 10 0
0.5600 0.2390 0.0060 0 0 10 0
0.5620 0.2380 0.0076 0 0 10 0
0.5540 0.2381 0.0065 0 0 10 0
0.5680 0.2378 0.0059 0 0 10 0
0.5620 0.2375 0.0057 0 0 10 0
0.5620 0.2375 0.0057 0 0 10 0
0.5740 0.2376 0.0064 0 0 10 0
0.5680 0.2371 0.0070 0 0 10 0
0.5640 0.2367 0.0069 0 0 10 0
0.5760 0.2360 0.0044 0 0 10 0
0.5760 0.2360 0.0044 0 0 10 0
0.5680 0.2358 0.0043 0 0 10 0
0.5800 0.2350 0.0047 0 0 10 0
0.5660 0.2348 0.0059 0 0 10 0
0.5660 0.2347 0.0038 0 0 10 0
0.5900 0.2344 0.0027 0 0 10 0
0.5880 0.2340 0.0029 0 0 10 0
0.5740 0.2327 0.0025 0 0 10 0
0.5860 0.2320 0.0024 0 0 10 0
0.5940 0.2313 0.0003 0 0 10 0
0.5940 0.2313 0.0003 0 0 10 0
0.5640 0.2309 -0.0015 0 0 10 0
0.5620 0.2308 -0.0023 0 0 10 0
0.5780 0.2306 -0.0022 0 0 10 0
0.5780 0.2306 -0.0022 0 0 10 0
0.5600 0.2294 0.0000 0 0 10 0
0.5660 0.2294 0.0000 0 0 10 0
0.5640 0.2284 -0.0023 0 0 10 0
0.5680 0.2277 -0.0025 0 0 10 0
0.5780 0.2273 -0.0001 0 0 10 0
0.5660 0.2271 -0.0000 0 0 10 0
0.5720 0.2264 0.0022 0 0 10 0
0.5860 0.2256 0.0023 0 0 10 0
0.5740 0.2251 0.0028 0 0 10 0
0.5920 0.2237 0.0027 0 0 10 0
0.5640 0.2233 0.0037 0 0 10 0
0.5640 0.2233 0.0037 0 0 10 0
0.5760 0.2228 0.0022 0 0 10 0
0.5820 0.2228 0.0022 0 0 10 0
0.5980 0.2228 0.0028 0 0 10 0
0.5980 0.2228 0.0028 0 0 10 0
0.5680 0.2224 0.0041 0 0 10 0
0.5660 0.2222 0.0038 0 0 10 0
0.5660 0.2222 0.0038 0 0 10 0
0.5840 0.2214 0.0045 0 0 10 0
0.5840 0.2214 0.0045 0 0 10 0
0.5680 0.2209 0.0043 0 0 10 0
0.5840 0.2199 0.0047 0 0 10 0
0.5760 0.2194 0.0048 0 0 10 0
0.5740 0.2193 0.0046 0 0 10 0
0.5740 0.2193 0.0046 0 0 10 0
0.5960 0.2191 0.0038 0 0 10 0
0.5840 0.2191 0.0037 0 0 10 0
0.5980 0.2186 0.0064 0 0 10 0
0.5980 0.2186 0.0064 0 0 10 0
0.5740 0.2175 0.0053 0 0 10 0
0.5740 0.2174 0.0045 0 0 10 0
0.5740 0.2174 0.0045 0 0 10 0
0.5780 0.2172 0.0056 0 0 10 0
0.5940 0.2175 0.0053 0 0 10 0
0.5860 0.2176 0.0043 0 0 10 0
0.6020 0.2171 0.0038 0 0 10 0
0.5780 0.2164 0.0046 0 0 10 0
0.5700 0.2155 0.0044 0 0 10 0
0.5900 0.2146 0.0032 0 0 10 0
0.5820 0.2142 -0.0007 0 0 10 0
0.5940 0.2143 -0.0012 0 0 10 0
0.5700 0.2145 -0.0026 0 0 10 0
0.5700 0.2146 -0.0033 0 0 10 0
0.5700 0.2139 -0.0018 0 0 10 0
0.5720 0.2139 -0.0018 0 0 10 0
0.5920 0.2133 -0.0002 0 0 10 0
0.5920 0.2133 -0.0002 0 0 10 0
0.5960 0.2127 0.0027 0 0 10 0
0.5900 0.2127 0.0027 0 0 10 0
0.5580 0.2125 0.0030 0 0 10 0
0.5840 0.2118 0.0028 0 0 10 0
0.5840 0.2118 0.0028 0 0 10 0
0.5880 0.2115 0.0045 0 0 10 0
0.6000 0.2112 0.0048 0 0 10 0
0.5860 0.2109 0.0048 0 0 10 0
0.5860 0.2109 0.0048 0 0 10 0
0.5900 0.2106 0.0071 0 0 10 0
0.5680 0.2104 0.0069 0 0 10 0
0.5780 0.2093 0.0062 0 0 10 0
0.5860 0.2085 0.0062 0 0 10 0
0.5820 0.2077 0.0076 0 0 10 0
0.5840 0.2077 0.0067 0 0 10 0
0.5840 0.2077 0.0067 0 0 10 0
0.5600 0.2068 0.0068 0 0 10 0
0.5920 0.2060 0.0075 0 0 10 0
0.5960 0.2056 0.0075 0 0 10 0
0.5820 0.2052 0.0073 0 0 10 0
0.5820 0.2052 0.0073 0 0 10 0
0.5880 0.2050 0.0088 0 0 10 0
0.5880 0.2051 0.0080 0 0 10 0
0.5780 0.2051 0.0078 0 0 10 0
0.6000 0.2050 0.0078 0 0 10 0
0.6000 0.2048 0.0102 0 0 10 0
0.6000 0.2048 0.0102 0 0 10 0
0.5800 0.2041 0.0102 0 0 10 0
0.5840 0.2040 0.0091 0 0 10 0
0.5840 0.2037 0.0090 0 0 10 0
0.5860 0.2025 0.0106 0 0 10 0
0.5860 0.2025 0.0106 0 0 10 0
0.5860 0.2019 0.0103 0 0 10 0
0.6120 0.2018 0.0109 0 0 10 0
0.6040 0.2018 0.0070 0 0 10 0
0.6040 0.2018 0.0070 0 0 10 0
0.5780 0.2012 0.0072 0 0 10 0
0.5780 0.2012 0.0072 0 0 10 0
0.5920 0.2002 0.0045 0 0 10 0
0.5920 0.1998 0.0072 0 0 10 0
0.5840 0.1989 0.0078 0 0 10 0
0.5880 0.1981 0.0078 0 0 10 0
0.6200 0.1980 0.0083 0 0 10 0
0.5980 0.1977 0.0119 0 0 10 0
0.5980 0.1977 0.0119 0 0 10 0
0.5820 0.1970 0.0123 0 0 10 0
0.5900 0.1965 0.0102 0 0 10 0
0.5940 0.1963 0.0101 0 0 10 0
0.5940 0.1963 0.0101 0 0 10 0
0.5680 0.1961 0.0097 0 0 10 0
0.5820 0.1957 0.0099 0 0 10 0
0.5780 0.1950 0.0086 0 0 10 0
0.5840 0.1944 0.0082 0 0 10 0
0.5700 0.1940 0.0080 0 0 10 0
0.5900 0.1937 0.0080 0 0 10 0
0.5880 0.1937 0.0080 0 0 10 0
0.5880 0.1937 0.0080 0 0 10 0
0.5960 0.1939 0.0079 0 0 10 0
0.5920 0.1929 0.0087 0 0 10 0
0.5860 0.1923 0.0078 0 0 10 0
0.5860 0.1923 0.0078 0 0 10 0
0.6040 0.1902 0.0092 0 0 10 0
0.6040 0.1902 0.0092 0 0 10 0
0.6060 0.1901 0.0090 0 0 10 0
0.5820 0.1901 0.0073 0 0 10 0
0.5940 0.1900 0.0081 0 0 10 0
0.5780 0.1901 0.0080 0 0 10 0
0.5780 0.1901 0.0080 0 0 10 0
0.6000 0.1897 0.0083 0 0 10 0
0.5960 0.1886 0.0084 0 0 10 0
0.5960 0.1877 0.0092 0 0 10 0
0.5700 0.1877 0.0092 0 0 10 0
0.5980 0.1874 0.0083 0 0 10 0
0.5880 0.1869 0.0066 0 0 10 0
0.5640 0.1865 0.0066 0 0 10 0
0.5960 0.1861 0.0069 0 0 10 0
0.5900 0.1859 0.0038 0 0 10 0
0.5900 0.1859 0.0038 0 0 10 0
0.5760 0.1859 0.0032 0 0 10 0
0.5920 0.1853 0.0020 0 0 10 0
0.5800 0.1856 0.0034 0 0 10 0
0.5840 0.1846 0.0041 0 0 10 0
0.5840 0.1846 0.0041 0 0 10 0
0.6120 0.1847 0.0049 0 0 10 0
0.5880 0.1845 0.0029 0 0 10 0
0.5880 0.1845 0.0029 0 0 10 0
0.5860 0.1837 0.0024 0 0 10 0
0.5740 0.1829 0.0027 0 0 10 0
0.5840 0.1821 0.0019 0 0 10 0
0.5840 0.1821 0.0019 0 0 10 0
0.6080 0.1819 0.0014 0 0 10 0
0.5940 0.1816 0.0015 0 0 10 0
0.6120 0.1810 0.0010 0 0 10 0
0.5900 0.1803 0.0023 0 0 10 0
0.5900 0.1796 0.0047 0 0 10 0
0.6040 0.1791 0.0059 0 0 10 0
0.6040 0.1791 0.0059 0 0 10 0
0.6060 0.1792 0.0078 0 0 10 0
0.6040 0.1790 0.0039 0 0 10 0
0.5920 0.1787 0.0028 0 0 10 0
0.5920 0.1787 0.0028 0 0 10 0
0.5940 0.1779 0.0027 0 0 10 0
0.6020 0.1777 0.0032 0 0 10 0
0.5920 0.1774 0.0032 0 0 10 0
0.5900 0.1767 0.0034 0 0 10 0
0.5900 0.1765 0.0027 0 0 10 0
0.5820 0.1761 0.0026 0 0 10 0
0.5820 0.1761 0.0026 0 0 10 0
0.5880 0.1758 0.0037 0 0 10 0
0.6000 0.1751 0.0022 0 0 10 0
0.5900 0.1746 0.0001 0 0 10 0
0.5960 0.1740 -0.0030 0 0 10 0
0.6020 0.1735 -0.0031 0 0 10 0
0.5960 0.1728 -0.0031 0 0 10 0
0.5960 0.1728 -0.0031 0 0 10 0
0.6000 0.1723 -0.0076 0 0 10 0
0.5980 0.1718 -0.0047 0 0 10 0
0.6400 0.1714 0.0017 0 0 10 0
0.6040 0.1715 0.0020 0 0 10 0
0.6160 0.1715 0.0017 0 0 10 0
0.6160 0.1715 0.0017 0 0 10 0
0.6220 0.1708 -0.0002 0 0 10 0
0.6120 0.1705 -0.0032 0 0 10 0
0.6120 0.1702 -0.0031 0 0 10 0
0.6060 0.1699 -0.0027 0 0 10 0
0.6060 0.1695 -0.0026 0 0 10 0
0.5940 0.1694 -0.0044 0 0 10 0
0.5940 0.1694 -0.0044 0 0 10 0
0.6060 0.1687 -0.0043 0 0 10 0
0.5980 0.1683 -0.0042 0 0 10 0
0.6120 0.1677 -0.0032 0 0 10 0
0.5980 0.1670 -0.0026 0 0 10 0
0.5980 0.1670 -0.0026 0 0 10 0
0.6080 0.1660 -0.0056 0 0 10 0
0.5980 0.1659 -0.0054 0 0 10 0
0.5960 0.1655 -0.0053 0 0 10 0
0.5960 0.1655 -0.0053 0 0 10 0
0.6000 0.1646 -0.0056 0 0 10 0
0.6080 0.1640 -0.0063 0 0 10 0
0.6120 0.1632 -0.0085 0 0 10 0
0.6120 0.1632 -0.0085 0 0 10 0
0.6140 0.1615 -0.0045 0 0 10 0
0.6140 0.1615 -0.0045 0 0 10 0
0.6260 0.1611 -0.0045 0 0 10 0
0.6060 0.1611 -0.0042 0 0 10 0
0.5920 0.1613 -0.0058 0 0 10 0
0.6120 0.1615 -0.0053 0 0 10 0
0.6120 0.1615 -0.0053 0 0 10 0
0.5900 0.1612 -0.0033 0 0 10 0
0.6040 0.1607 -0.0022 0 0 10 0
0.6040 0.1602 -0.0017 0 0 10 0
0.6040 0.1602 -0.0017 0 0 10 0
0.6060 0.1592 -0.0023 0 0 10 0
0.6060 0.1592 -0.0023 0 0 10 0
0.6060 0.1590 -0.0015 0 0 10 0
0.6180 0.1586 -0.0027 0 0 10 0
0.5940 0.1582 -0.0032 0 0 10 0
0.5940 0.1582 -0.0032 0 0 10 0
0.6060 0.1576 -0.0030 0 0 10 0
0.6160 0.1574 -0.0043 0 0 10 0
0.6160 0.1570 -0.0039 0 0 10 0
0.6180 0.1568 -0.0029 0 0 10 0
0.6180 0.1568 -0.0029 0 0 10 0
0.6180 0.1557 0.0008 0 0 10 0
0.6040 0.1559 0.0013 0 0 10 0
0.5960 0.1561 0.0015 0 0 10 0
0.6260 0.1561 0.0027 0 0 10 0
0.6120 0.1557 0.0032 0 0 10 0
0.6120 0.1557 0.0032 0 0 10 0
0.6320 0.1552 0.0029 0 0 10 0
0.6020 0.1548 0.0028 0 0 10 0
0.6160 0.1542 0.0041 0 0 10 0
0.6300 0.1535 0.0032 0 0 10 0
0.6380 0.1533 0.0011 0 0 10 0
0.6380 0.1533 0.0011 0 0 10 0
0.6140 0.1532 0.0038 0 0 10 0
0.6060 0.1529 0.0036 0 0 10 0
0.6220 0.1525 0.0045 0 0 10 0
0.6140 0.1523 0.0038 0 0 10 0
0.5900 0.1519 0.0033 0 0 10 0
0.6240 0.1515 0.0030 0 0 10 0
0.6240 0.1515 0.0030 0 0 10 0
0.6180 0.1511 -0.0011 0 0 10 0
0.6000 0.1506 -0.0013 0 0 10 0
0.6080 0.1499 -0.0020 0 0 10 0
0.6120 0.1491 -0.0021 0 0 10 0
0.6120 0.1491 -0.0021 0 0 10 0
0.6160 0.1471 -0.0031 0 0 10 0
0.6160 0.1471 -0.0031 0 0 10 0
0.6180 0.1464 -0.0007 0 0 10 0
0.6060 0.1459 -0.0022 0 0 10 0
0.6060 0.1459 -0.0022 0 0 10 0
0.6020 0.1453 -0.0002 0 0 10 0
0.5900 0.1446 -0.0047 0 0 10 0
0.5900 0.1446 -0.0047 0 0 10 0
0.5920 0.1432 -0.0074 0 0 10 0
0.6140 0.1429 -0.0057 0 0 10 0
0.6100 0.1428 -0.0056 0 0 10 0
0.6100 0.1428 -0.0056 0 0 10 0
0.6080 0.1424 -0.0057 0 0 10 0
0.5960 0.1424 -0.0058 0 0 10 0
0.6160 0.1423 -0.0047 0 0 10 0
0.6080 0.1417 -0.0040 0 0 10 0
0.6080 0.1417 -0.0040 0 0 10 0
0.6000 0.1415 -0.0030 0 0 10 0
0.6000 0.1415 -0.0030 0 0 10 0
0.6100 0.1407 -0.0032 0 0 10 0
0.6160 0.1397 -0.0031 0 0 10 0
0.6020 0.1389 -0.0035 0 0 10 0
0.6020 0.1389 -0.0035 0 0 10 0
0.6000 0.1379 -0.0035 0 0 10 0
0.6120 0.1371 -0.0034 0 0 10 0
0.6320 0.1367 -0.0056 0 0 10 0
0.5860 0.1363 -0.0060 0 0 10 0
0.6120 0.1358 -0.0040 0 0 10 0
0.6140 0.1353 -0.0039 0 0 10 0
0.6140 0.1353 -0.0039 0 0 10 0
0.6120 0.1348 -0.0040 0 0 10 0
0.6080 0.1348 -0.0038 0 0 10 0
0.6220 0.1341 -0.0007 0 0 10 0
0.6120 0.1335 -0.0003 0 0 10 0
0.6120 0.1335 -0.0003 0 0 10 0
0.6040 0.1330 0.0000 0 0 10 0
0.6040 0.1330 0.0000 0 0 10 0
0.6100 0.1327 0.0018 0 0 10 0
0.6220 0.1314 0.0001 0 0 10 0
0.6200 0.1310 -0.0001 0 0 10 0
0.6200 0.1310 -0.0001 0 0 10 0
0.6200 0.1301 -0.0002 0 0 10 0
0.6260 0.1289 -0.0040 0 0 10 0
0.6260 0.1288 -0.0051 0 0 10 0
0.5960 0.1285 -0.0059 0 0 10 0
0.6100 0.1282 -0.0056 0 0 10 0
0.6160 0.1280 -0.0054 0 0 10 0
0.6160 0.1280 -0.0054 0 0 10 0
0.6000 0.1275 -0.0047 0 0 10 0
0.6260 0.1273 -0.0028 0 0 10 0
0.6160 0.1272 -0.0031 0 0 10 0
0.6060 0.1272 -0.0030 0 0 10 0
0.6120 0.1269 -0.0001 0 0 10 0
0.6180 0.1267 0.0001 0 0 10 0
0.6140 0.1263 -0.0027 0 0 10 0
0.6000 0.1257 -0.0028 0 0 10 0
0.6000 0.1257 -0.0028 0 0 10 0
0.6040 0.1251 -0.0000 0 0 10 0
0.6120 0.1252 0.0006 0 0 10 0
0.6280 0.1256 0.0016 0 0 10 0
0.5900 0.1254 0.0024 0 0 10 0
0.6020 0.1246 0.0025 0 0 10 0
0.6020 0.1246 0.0025 0 0 10 0
0.6120 0.1241 0.0005 0 0 10 0
0.6100 0.1236 -0.0000 0 0 10 0
0.6380 0.1233 -0.0003 0 0 10 0
0.6140 0.1235 -0.0007 0 0 10 0
0.6140 0.1235 -0.0007 0 0 10 0
0.6300 0.1236 -0.0061 0 0 10 0
0.6360 0.1238 -0.0063 0 0 10 0
0.6280 0.1228 -0.0072 0 0 10 0
0.6260 0.1219 -0.0069 0 0 10 0
0.6460 0.1212 -0.0067 0 0 10 0
0.6460 0.1212 -0.0067 0 0 10 0
0.6360 0.1207 -0.0065 0 0 10 0
0.6420 0.1202 -0.0069 0 0 10 0
0.6200 0.1197 -0.0119 0 0 10 0
0.6260 0.1197 -0.0109 0 0 10 0
0.6300 0.1195 -0.0132 0 0 10 0
0.6300 0.1195 -0.0132 0 0 10 0
0.6340 0.1191 -0.0139 0 0 10 0
0.6340 0.1188 -0.0150 0 0 10 0
0.6220 0.1183 -0.0136 0 0 10 0
0.6240 0.1181 -0.0142 0 0 10 0
0.6240 0.1181 -0.0142 0 0 10 0
0.6160 0.1179 -0.0059 0 0 10 0
0.6020 0.1175 -0.0052 0 0 10 0
0.6060 0.1173 -0.0040 0 0 10 0
0.6320 0.1164 -0.0033 0 0 10 0
0.6320 0.1157 -0.0020 0 0 10 0
0.6320 0.1157 -0.0020 0 0 10 0
0.6200 0.1137 -0.0018 0 0 10 0
0.6200 0.1135 -0.0013 0 0 10 0
0.6200 0.1139 -0.0037 0 0 10 0
0.6260 0.1141 -0.0035 0 0 10 0
0.6100 0.1139 -0.0027 0 0 10 0
0.6100 0.1139 -0.0027 0 0 10 0
0.5920 0.1139 -0.0025 0 0 10 0
0.6220 0.1135 -0.0011 0 0 10 0
0.6340 0.1124 -0.0004 0 0 10 0
0.6340 0.1124 -0.0004 0 0 10 0
0.6380 0.1105 0.0028 0 0 10 0
0.6380 0.1097 0.0032 0 0 10 0
0.6340 0.1097 0.0032 0 0 10 0
0.6140 0.1096 0.0044 0 0 10 0
0.6340 0.1096 0.0047 0 0 10 0
0.6040 0.1097 0.0060 0 0 10 0
0.6300 0.1099 0.0064 0 0 10 0
0.6280 0.1096 0.0073 0 0 10 0
0.6500 0.1091 0.0083 0 0 10 0
0.6140 0.1087 0.0092 0 0 10 0
0.6100 0.1081 0.0108 0 0 10 0
0.5940 0.1078 0.0117 0 0 10 0
0.6200 0.1074 0.0121 0 0 10 0
0.6380 0.1066 0.0106 0 0 10 0
0.6380 0.1066 0.0106 0 0 10 0
0.6300 0.1061 0.0086 0 0 10 0
0.6340 0.1059 0.0059 0 0 10 0
0.6240 0.1059 0.0053 0 0 10 0
0.6340 0.1058 0.0087 0 0 10 0
0.6500 0.1059 0.0088 0 0 10 0
0.6480 0.1057 0.0081 0 0 10 0
0.6180 0.1053 0.0084 0 0 10 0
0.6120 0.1052 0.0103 0 0 10 0
0.6300 0.1053 0.0103 0 0 10 0
0.6300 0.1048 0.0131 0 0 10 0
0.6500 0.1046 0.0126 0 0 10 0
0.6260 0.1041 0.0117 0 0 10 0
0.6260 0.1041 0.0117 0 0 10 0
0.6200 0.1032 0.0133 0 0 10 0
0.6380 0.1025 0.0128 0 0 10 0
0.6540 0.1016 0.0117 0 0 10 0
0.6220 0.1009 0.0126 0 0 10 0
0.6120 0.1009 0.0126 0 0 10 0
0.6180 0.1005 0.0128 0 0 10 0
0.6280 0.1007 0.0123 0 0 10 0
0.6440 0.1007 0.0117 0 0 10 0
0.6340 0.1002 0.0112 0 0 10 0
0.6400 0.0999 0.0119 0 0 10 0
0.6260 0.0993 0.0102 0 0 10 0
0.6520 0.0986 0.0130 0 0 10 0
0.6520 0.0986 0.0130 0 0 10 0
0.6400 0.0966 0.0172 0 0 10 0
0.6400 0.0966 0.0172 0 0 10 0
0.6420 0.0962 0.0168 0 0 10 0
0.6460 0.0962 0.0218 0 0 10 0
0.6260 0.0959 0.0218 0 0 10 0
0.6240 0.0946 0.0202 0 0 10 0
0.6240 0.0946 0.0202 0 0 10 0
0.6200 0.0933 0.0188 0 0 10 0
0.6200 0.0933 0.0188 0 0 10 0
0.6440 0.0926 0.0178 0 0 10 0
0.6340 0.0931 0.0129 0 0 10 0
0.6340 0.0931 0.0129 0 0 10 0
0.6440 0.0924 0.0115 0 0 10 0
0.6560 0.0910 0.0108 0 0 10 0
0.6320 0.0898 0.0113 0 0 10 0
0.6200 0.0891 0.0081 0 0 10 0
0.6280 0.0888 0.0099 0 0 10 0
0.6380 0.0889 0.0074 0 0 10 0
0.6380 0.0889 0.0074 0 0 10 0
0.6540 0.0892 0.0076 0 0 10 0
0.6560 0.0892 0.0097 0 0 10 0
0.6520 0.0889 0.0094 0 0 10 0
0.6680 0.0884 0.0070 0 0 10 0
0.6680 0.0884 0.0070 0 0 10 0
0.6460 0.0872 0.0062 0 0 10 0
0.6460 0.0872 0.0062 0 0 10 0
0.6540 0.0874 0.0058 0 0 10 0
0.6540 0.0878 0.0050 0 0 10 0
0.6300 0.0876 0.0042 0 0 10 0
0.6300 0.0876 0.0042 0 0 10 0
0.6520 0.0870 0.0057 0 0 10 0
0.6400 0.0860 0.0042 0 0 10 0
0.6400 0.0860 0.0042 0 0 10 0
0.6380 0.0859 0.0059 0 0 10 0
0.6240 0.0859 0.0056 0 0 10 0
0.6440 0.0857 0.0015 0 0 10 0
0.6360 0.0851 0.0009 0 0 10 0
0.6360 0.0851 0.0009 0 0 10 0
0.6340 0.0844 0.0003 0 0 10 0
0.6160 0.0844 0.0003 0 0 10 0
0.6440 0.0839 -0.0049 0 0 10 0
0.6300 0.0838 -0.0054 0 0 10 0
0.6560 0.0838 -0.0031 0 0 10 0
0.6560 0.0838 -0.0031 0 0 10 0
0.6600 0.0832 -0.0031 0 0 10 0
0.6600 0.0826 -0.0048 0 0 10 0
0.6560 0.0819 -0.0045 0 0 10 0
0.6560 0.0819 -0.0045 0 0 10 0
0.6380 0.0814 -0.0020 0 0 10 0
0.6360 0.0811 -0.0012 0 0 10 0
0.6640 0.0808 -0.0017 0 0 10 0
0.6740 0.0806 -0.0003 0 0 10 0
0.6760 0.0800 -0.0013 0 0 10 0
0.6660 0.0793 -0.0017 0 0 10 0
0.6660 0.0793 -0.0017 0 0 10 0
0.6720 0.0789 -0.0038 0 0 10 0
0.6640 0.0785 -0.0049 0 0 10 0
0.6460 0.0779 -0.0047 0 0 10 0
0.6740 0.0774 -0.0073 0 0 10 0
0.6740 0.0774 -0.0073 0 0 10 0
0.6500 0.0769 -0.0068 0 0 10 0
0.6500 0.0769 -0.0068 0 0 10 0
0.6580 0.0770 -0.0086 0 0 10 0
0.6700 0.0773 -0.0073 0 0 10 0
0.6440 0.0771 -0.0077 0 0 10 0
0.6380 0.0762 -0.0080 0 0 10 0
0.6560 0.0755 -0.0062 0 0 10 0
0.6580 0.0747 -0.0076 0 0 10 0
0.6740 0.0745 -0.0052 0 0 10 0
0.6640 0.0744 -0.0042 0 0 10 0
0.6640 0.0742 -0.0025 0 0 10 0
0.6640 0.0742 -0.0025 0 0 10 0
0.6720 0.0738 -0.0025 0 0 10 0
0.6600 0.0740 -0.0004 0 0 10 0
0.6760 0.0734 -0.0003 0 0 10 0
0.6460 0.0727 -0.0001 0 0 10 0
0.6460 0.0727 -0.0001 0 0 10 0
0.6820 0.0719 0.0004 0 0 10 0
0.6440 0.0712 0.0016 0 0 10 0
0.6640 0.0704 0.0010 0 0 10 0
0.6580 0.0702 -0.0015 0 0 10 0
0.6920 0.0707 -0.0011 0 0 10 0
0.6920 0.0707 -0.0011 0 0 10 0
0.6580 0.0712 -0.0032 0 0 10 0
0.6800 0.0710 -0.0046 0 0 10 0
0.6780 0.0702 -0.0063 0 0 10 0
0.6700 0.0695 -0.0050 0 0 10 0
0.6820 0.0686 -0.0061 0 0 10 0
0.6600 0.0679 -0.0062 0 0 10 0
0.6600 0.0679 -0.0062 0 0 10 0
0.6720 0.0677 -0.0071 0 0 10 0
0.6480 0.0678 -0.0042 0 0 10 0
0.6700 0.0676 -0.0008 0 0 10 0
0.6780 0.0669 -0.0002 0 0 10 0
0.6780 0.0669 -0.0002 0 0 10 0
0.6820 0.0658 0.0030 0 0 10 0
0.6820 0.0651 0.0050 0 0 10 0
0.6840 0.0644 0.0053 0 0 10 0
0.6920 0.0641 0.0046 0 0 10 0
0.6760 0.0641 0.0056 0 0 10 0
0.6760 0.0641 0.0056 0 0 10 0
0.6680 0.0640 0.0051 0 0 10 0
0.6640 0.0636 0.0027 0 0 10 0
0.6860 0.0632 0.0027 0 0 10 0
0.6720 0.0624 0.0054 0 0 10 0
0.6720 0.0624 0.0054 0 0 10 0
0.6800 0.0617 0.0051 0 0 10 0
0.7040 0.0613 0.0055 0 0 10 0
0.6740 0.0611 0.0055 0 0 10 0
0.6740 0.0611 0.0055 0 0 10 0
0.6720 0.0599 0.0065 0 0 10 0
0.6720 0.0599 0.0065 0 0 10 0
0.6800 0.0596 0.0053 0 0 10 0
0.6900 0.0591 0.0034 0 0 10 0
0.6860 0.0589 0.0036 0 0 10 0
0.6940 0.0585 0.0045 0 0 10 0
0.6940 0.0585 0.0045 0 0 10 0
0.6860 0.0581 0.0015 0 0 10 0
0.6860 0.0581 0.0015 0 0 10 0
0.6580 0.0581 0.0055 0 0 10 0
0.6840 0.0560 0.0100 0 0 10 0
0.6820 0.0554 0.0112 0 0 10 0
0.6840 0.0550 0.0130 0 0 10 0
0.6760 0.0546 0.0117 0 0 10 0
0.6760 0.0540 0.0110 0 0 10 0
0.6900 0.0540 0.0110 0 0 10 0
0.6880 0.0537 0.0108 0 0 10 0
0.6620 0.0537 0.0107 0 0 10 0
0.6780 0.0538 0.0072 0 0 10 0
0.6780 0.0538 0.0072 0 0 10 0
0.6740 0.0533 0.0076 0 0 10 0
0.6980 0.0524 0.0072 0 0 10 0
0.7000 0.0519 0.0019 0 0 10 0
0.7000 0.0519 0.0019 0 0 10 0
0.7060 0.0513 0.0020 0 0 10 0
0.7000 0.0509 0.0015 0 0 10 0
0.7000 0.0509 0.0015 0 0 10 0
0.6900 0.0503 0.0025 0 0 10 0
0.7100 0.0494 0.0025 0 0 10 0
0.6900 0.0490 -0.0006 0 0 10 0
0.6900 0.0490 -0.0006 0 0 10 0
0.7020 0.0482 -0.0007 0 0 10 0
0.6880 0.0477 -0.0040 0 0 10 0
0.6860 0.0472 -0.0037 0 0 10 0
0.6880 0.0470 -0.0032 0 0 10 0
0.7040 0.0472 -0.0037 0 0 10 0
0.7040 0.0472 -0.0037 0 0 10 0
0.6860 0.0468 -0.0006 0 0 10 0
0.6880 0.0463 -0.0031 0 0 10 0
0.7040 0.0460 -0.0040 0 0 10 0
0.6980 0.0456 -0.0039 0 0 10 0
0.6900 0.0454 -0.0020 0 0 10 0
0.6900 0.0454 -0.0020 0 0 10 0
0.7040 0.0450 -0.0034 0 0 10 0
0.6820 0.0448 -0.0066 0 0 10 0
0.7020 0.0448 -0.0084 0 0 10 0
0.7000 0.0441 -0.0079 0 0 10 0
0.7160 0.0427 -0.0078 0 0 10 0
0.7000 0.0427 -0.0078 0 0 10 0
0.7160 0.0425 -0.0059 0 0 10 0
0.7240 0.0422 -0.0056 0 0 10 0
0.7200 0.0419 -0.0068 0 0 10 0
0.7020 0.0414 -0.0067 0 0 10 0
0.7000 0.0409 -0.0058 0 0 10 0
0.6960 0.0400 -0.0056 0 0 10 0
0.6940 0.0394 -0.0081 0 0 10 0
0.6900 0.0392 -0.0040 0 0 10 0
0.6900 0.0392 -0.0040 0 0 10 0
0.7300 0.0394 -0.0032 0 0 10 0
0.6940 0.0390 -0.0026 0 0 10 0
0.6940 0.0387 -0.0019 0 0 10 0
0.7100 0.0379 -0.0023 0 0 10 0
0.7100 0.0379 -0.0023 0 0 10 0
0.7020 0.0374 -0.0028 0 0 10 0
0.7020 0.0374 -0.0028 0 0 10 0
0.6900 0.0367 0.0004 0 0 10 0
0.7200 0.0363 -0.0011 0 0 10 0
0.6980 0.0359 -0.0008 0 0 10 0
0.6980 0.0359 -0.0008 0 0 10 0
0.6980 0.0354 -0.0015 0 0 10 0
0.7120 0.0352 0.0001 0 0 10 0
0.7120 0.0352 0.0001 0 0 10 0
0.6940 0.0347 -0.0001 0 0 10 0
0.7080 0.0339 0.0016 0 0 10 0
0.7080 0.0339 0.0016 0 0 10 0
0.7180 0.0334 -0.0000 0 0 10 0
0.7180 0.0334 -0.0000 0 0 10 0
0.7000 0.0332 -0.0022 0 0 10 0
0.7000 0.0332 -0.0022 0 0 10 0
0.7280 0.0325 -0.0015 0 0 10 0
0.7420 0.0317 -0.0020 0 0 10 0
0.7260 0.0316 -0.0023 0 0 10 0
0.7180 0.0316 -0.0012 0 0 10 0
0.7180 0.0311 -0.0006 0 0 10 0
0.7180 0.0307 0.0005 0 0 10 0
0.7180 0.0307 0.0005 0 0 10 0
0.7180 0.0292 0.0030 0 0 10 0
0.7320 0.0292 0.0030 0 0 10 0
0.7240 0.0290 0.0027 0 0 10 0
0.7240 0.0287 0.0021 0 0 10 0
0.7340 0.0287 0.0069 0 0 10 0
0.7160 0.0285 0.0070 0 0 10 0
0.7140 0.0279 0.0039 0 0 10 0
0.7220 0.0276 0.0034 0 0 10 0
0.7280 0.0272 0.0024 0 0 10 0
0.7280 0.0272 0.0024 0 0 10 0
0.7220 0.0264 0.0051 0 0 10 0
0.7220 0.0264 0.0051 0 0 10 0
0.7360 0.0253 0.0066 0 0 10 0
0.7060 0.0245 0.0049 0 0 10 0
0.7220 0.0239 0.0042 0 0 10 0
0.6920 0.0235 0.0031 0 0 10 0
0.6920 0.0235 0.0031 0 0 10 0
0.7080 0.0231 0.0042 0 0 10 0
0.7200 0.0228 0.0041 0 0 10 0
0.7140 0.0226 0.0032 0 0 10 0
0.7040 0.0215 0.0033 0 0 10 0
0.7040 0.0215 0.0033 0 0 10 0
0.7100 0.0202 0.0024 0 0 10 0
0.7060 0.0194 0.0007 0 0 10 0
0.6980 0.0192 0.0019 0 0 10 0
0.7020 0.0195 0.0018 0 0 10 0
0.7020 0.0195 0.0018 0 0 10 0
0.7040 0.0193 0.0018 0 0 10 0
0.7180 0.0186 0.0052 0 0 10 0
0.7260 0.0177 0.0051 0 0 10 0
0.7180 0.0174 0.0060 0 0 10 0
0.7180 0.0174 0.0060 0 0 10 0
0.7160 0.0173 0.0055 0 0 10 0
0.7340 0.0173 0.0099 0 0 10 0
0.7400 0.0172 0.0099 0 0 10 0
0.7420 0.0167 0.0128 0 0 10 0
0.7320 0.0164 0.0134 0 0 10 0
0.7380 0.0161 0.0158 0 0 10 0
0.7380 0.0161 0.0158 0 0 10 0
0.7080 0.0158 0.0157 0 0 10 0
0.7360 0.0152 0.0135 0 0 10 0
0.7240 0.0143 0.0130 0 0 10 0
0.7300 0.0145 0.0121 0 0 10 0
0.7140 0.0145 0.0087 0 0 10 0
0.7260 0.0140 0.0099 0 0 10 0
0.7200 0.0130 0.0090 0 0 10 0
0.7300 0.0123 0.0087 0 0 10 0
0.7220 0.0116 0.0098 0 0 10 0
0.7220 0.0112 0.0076 0 0 10 0
0.7140 0.0112 0.0076 0 0 10 0
0.7220 0.0109 0.0062 0 0 10 0
0.7160 0.0108 0.0045 0 0 10 0
0.7060 0.0102 0.0028 0 0 10 0
0.7080 0.0093 0.0089 0 0 10 0
0.7060 0.0085 0.0079 0 0 10 0
0.7060 0.0085 0.0079 0 0 10 0
0.7040 0.0084 0.0107 0 0 10 0
0.7120 0.0082 0.0107 0 0 10 0
0.7120 0.0079 0.0110 0 0 10 0
0.7120 0.0072 0.0110 0 0 10 0
0.7180 0.0066 0.0095 0 0 10 0
0.7180 0.0066 0.0095 0 0 10 0
0.7120 0.0058 0.0097 0 0 10 0
0.7280 0.0058 0.0060 0 0 10 0
0.7320 0.0061 0.0055 0 0 10 0
0.7320 0.0061 0.0055 0 0 10 0
0.7360 0.0061 0.0053 0 0 10 0
0.7160 0.0064 0.0070 0 0 10 0
0.7240 0.0068 0.0064 0 0 10 0
0.7340 0.0066 0.0141 0 0 10 0
0.7340 0.0066 0.0141 0 0 10 0
0.7360 0.0055 0.0127 0 0 0 0
