0.5420 0.0532 -0.2807 0 0 0 10
0.5560 0.0525 -0.2789 0 0 0 10
0.5480 0.0523 -0.2775 0 0 0 10
0.5480 0.0523 -0.2775 0 0 0 10
0.5580 0.0528 -0.2780 0 0 0 10
0.5400 0.0531 -0.2780 0 0 0 10
0.5500 0.0533 -0.2775 0 0 0 10
0.5500 0.0533 -0.2775 0 0 0 10
0.5640 0.0533 -0.2737 0 0 0 10
0.5640 0.0533 -0.2737 0 0 0 0
0.5260 0.0546 -0.2563 0 0 0 10
0.5740 0.0543 -0.2534 0 0 0 10
0.5600 0.0545 -0.2533 0 0 0 10
0.5600 0.0545 -0.2533 0 0 0 10
0.5500 0.0553 -0.2540 0 0 0 10
0.5500 0.0553 -0.2540 0 0 0 10
0.5580 0.0553 -0.2527 0 0 0 10
0.5660 0.0550 -0.2517 0 0 0 10
0.5640 0.0552 -0.2504 0 0 0 10
0.5420 0.0555 -0.2490 0 0 0 10
0.5420 0.0555 -0.2490 0 0 0 10
0.5380 0.0559 -0.2483 0 0 0 10
0.5420 0.0558 -0.2453 0 0 0 10
0.5540 0.0559 -0.2415 0 0 0 10
0.5460 0.0562 -0.2394 0 0 0 10
0.5460 0.0562 -0.2394 0 0 0 10
0.5460 0.0558 -0.2361 0 0 0 10
0.5460 0.0559 -0.2344 0 0 0 10
0.5460 0.0558 -0.2338 0 0 0 10
0.5460 0.0558 -0.2338 0 0 0 10
0.5700 0.0555 -0.2327 0 0 0 10
0.5720 0.0552 -0.2306 0 0 0 10
0.5700 0.0553 -0.2260 0 0 0 10
0.5700 0.0557 -0.2242 0 0 0 10
0.5700 0.0557 -0.2242 0 0 0 10
0.5600 0.0560 -0.2200 0 0 0 10
0.5820 0.0567 -0.2179 0 0 0 10
0.5540 0.0572 -0.2171 0 0 0 10
0.5760 0.0572 -0.2156 0 0 0 10
0.5760 0.0572 -0.2156 0 0 0 10
0.5600 0.0569 -0.2150 0 0 0 10
0.5640 0.0565 -0.2122 0 0 0 10
0.5540 0.0563 -0.2097 0 0 0 10
0.5440 0.0566 -0.2073 0 0 0 10
0.5800 0.0569 -0.2052 0 0 0 10
0.5800 0.0569 -0.2052 0 0 0 10
0.5820 0.0570 -0.2017 0 0 0 10
0.5800 0.0569 -0.2017 0 0 0 10
0.5800 0.0567 -0.2007 0 0 0 10
0.5620 0.0567 -0.2003 0 0 0 10
0.5660 0.0564 -0.1985 0 0 0 10
0.5880 0.0567 -0.1969 0 0 0 10
0.5840 0.0572 -0.1945 0 0 0 10
0.5840 0.0572 -0.1945 0 0 0 10
0.5820 0.0579 -0.1928 0 0 0 10
0.5740 0.0580 -0.1920 0 0 0 10
0.5560 0.0577 -0.1895 0 0 0 10
0.5480 0.0577 -0.1870 0 0 0 10
0.5660 0.0574 -0.1804 0 0 0 10
0.6040 0.0576 -0.1777 0 0 0 10
0.5960 0.0581 -0.1742 0 0 0 10
0.5480 0.0591 -0.1719 0 0 0 10
0.5780 0.0597 -0.1667 0 0 0 10
0.5940 0.0602 -0.1642 0 0 0 10
0.5820 0.0598 -0.1614 0 0 0 10
0.5880 0.0591 -0.1594 0 0 0 10
0.5880 0.0591 -0.1594 0 0 0 10
0.5820 0.0583 -0.1571 0 0 0 10
0.5920 0.0575 -0.1571 0 0 0 10
0.6000 0.0570 -0.1545 0 0 0 10
0.6040 0.0573 -0.1528 0 0 0 10
0.6040 0.0573 -0.1528 0 0 0 10
0.6000 0.0577 -0.1491 0 0 0 10
0.6000 0.0577 -0.1491 0 0 0 10
0.6080 0.0579 -0.1463 0 0 0 10
0.5920 0.0580 -0.1448 0 0 0 10
0.5920 0.0579 -0.1448 0 0 0 10
0.5920 0.0579 -0.1448 0 0 0 10
0.6120 0.0577 -0.1438 0 0 0 10
0.6060 0.0573 -0.1413 0 0 0 10
0.5960 0.0565 -0.1359 0 0 0 10
0.6120 0.0564 -0.1332 0 0 0 10
0.6080 0.0567 -0.1292 0 0 0 10
0.6080 0.0567 -0.1292 0 0 0 10
0.6020 0.0570 -0.1271 0 0 0 10
0.6040 0.0571 -0.1258 0 0 0 10
0.6280 0.0569 -0.1237 0 0 0 10
0.6140 0.0565 -0.1196 0 0 0 10
0.6140 0.0565 -0.1196 0 0 0 10
0.6280 0.0563 -0.1169 0 0 0 10
0.6220 0.0559 -0.1138 0 0 0 10
0.6200 0.0556 -0.1117 0 0 0 10
0.6240 0.0558 -0.1077 0 0 0 10
0.6020 0.0560 -0.1062 0 0 0 10
0.6020 0.0560 -0.1062 0 0 0 10
0.6280 0.0570 -0.1021 0 0 0 10
0.6160 0.0574 -0.1002 0 0 0 10
0.6240 0.0580 -0.0982 0 0 0 10
0.6320 0.0582 -0.0955 0 0 0 10
0.6240 0.0581 -0.0927 0 0 0 10
0.6240 0.0584 -0.0915 0 0 0 10
0.6020 0.0584 -0.0915 0 0 0 10
0.6220 0.0584 -0.0894 0 0 0 10
0.6440 0.0580 -0.0874 0 0 0 0
0.6440 0.0581 -0.0685 0 0 10 0
0.6360 0.0577 -0.0659 0 0 10 0
0.6220 0.0574 -0.0650 0 0 10 0
0.6400 0.0577 -0.0620 0 0 10 0
0.6220 0.0579 -0.0615 0 0 10 0
0.6180 0.0580 -0.0593 0 0 10 0
0.6480 0.0582 -0.0585 0 0 10 0
0.6280 0.0583 -0.0567 0 0 10 0
0.6280 0.0583 -0.0567 0 0 10 0
0.6220 0.0584 -0.0557 0 0 10 0
0.6400 0.0580 -0.0546 0 0 10 0
0.6220 0.0577 -0.0537 0 0 10 0
0.6220 0.0577 -0.0537 0 0 10 0
0.6440 0.0573 -0.0516 0 0 10 0
0.6260 0.0575 -0.0488 0 0 10 0
0.6320 0.0572 -0.0471 0 0 10 0
0.6320 0.0571 -0.0448 0 0 10 0
0.6380 0.0571 -0.0455 0 0 10 0
0.6160 0.0565 -0.0456 0 0 10 0
0.6160 0.0565 -0.0456 0 0 10 0
0.6280 0.0558 -0.0499 0 0 10 0
0.6320 0.0557 -0.0507 0 0 10 0
0.6500 0.0554 -0.0510 0 0 10 0
0.6480 0.0553 -0.0525 0 0 10 0
0.6240 0.0547 -0.0514 0 0 10 0
0.6240 0.0547 -0.0514 0 0 10 0
0.6320 0.0543 -0.0517 0 0 10 0
0.6300 0.0536 -0.0518 0 0 10 0
0.6300 0.0523 -0.0490 0 0 10 0
0.6300 0.0523 -0.0490 0 0 10 0
0.6380 0.0512 -0.0499 0 0 10 0
0.6360 0.0508 -0.0482 0 0 10 0
0.6440 0.0498 -0.0489 0 0 10 0
0.6300 0.0495 -0.0467 0 0 10 0
0.6420 0.0495 -0.0472 0 0 10 0
0.6240 0.0494 -0.0496 0 0 10 0
0.6240 0.0494 -0.0496 0 0 10 0
0.6280 0.0494 -0.0499 0 0 10 0
0.6380 0.0487 -0.0473 0 0 10 0
0.6340 0.0480 -0.0482 0 0 10 0
0.6460 0.0462 -0.0489 0 0 10 0
0.6460 0.0462 -0.0489 0 0 10 0
0.6280 0.0447 -0.0484 0 0 10 0
0.6320 0.0440 -0.0486 0 0 10 0
0.6400 0.0436 -0.0514 0 0 10 0
0.6340 0.0439 -0.0511 0 0 10 0
0.6340 0.0439 -0.0511 0 0 10 0
0.6200 0.0441 -0.0500 0 0 10 0
0.6200 0.0441 -0.0500 0 0 10 0
0.6040 0.0430 -0.0487 0 0 10 0
0.6380 0.0424 -0.0469 0 0 10 0
0.6260 0.0417 -0.0460 0 0 10 0
0.6260 0.0417 -0.0460 0 0 10 0
0.6300 0.0409 -0.0454 0 0 10 0
0.6600 0.0402 -0.0451 0 0 10 0
0.6360 0.0400 -0.0459 0 0 10 0
0.6540 0.0400 -0.0464 0 0 10 0
0.6500 0.0396 -0.0466 0 0 10 0
0.6300 0.0394 -0.0447 0 0 10 0
0.6300 0.0394 -0.0447 0 0 10 0
0.6420 0.0393 -0.0449 0 0 10 0
0.6400 0.0388 -0.0439 0 0 10 0
0.6600 0.0383 -0.0418 0 0 10 0
0.6600 0.0383 -0.0418 0 0 10 0
0.6440 0.0372 -0.0404 0 0 10 0
0.6440 0.0372 -0.0404 0 0 10 0
0.6480 0.0369 -0.0410 0 0 10 0
0.6680 0.0362 -0.0401 0 0 10 0
0.6360 0.0359 -0.0409 0 0 0 0
0.6680 0.0348 -0.0391 0 0 10 0
0.6340 0.0321 -0.0380 0 0 10 0
0.6460 0.0319 -0.0383 0 0 10 0
0.6600 0.0314 -0.0383 0 0 10 0
0.6720 0.0311 -0.0369 0 0 10 0
0.6520 0.0309 -0.0366 0 0 10 0
0.6660 0.0306 -0.0374 0 0 10 0
0.6660 0.0306 -0.0374 0 0 10 0
0.6480 0.0299 -0.0301 0 0 10 0
0.6600 0.0292 -0.0293 0 0 10 0
0.6860 0.0286 -0.0280 0 0 10 0
0.6840 0.0278 -0.0292 0 0 10 0
0.6920 0.0282 -0.0294 0 0 10 0
0.6920 0.0282 -0.0294 0 0 10 0
0.6960 0.0282 -0.0271 0 0 10 0
0.6880 0.0282 -0.0284 0 0 10 0
0.6800 0.0285 -0.0276 0 0 10 0
0.6800 0.0281 -0.0287 0 0 10 0
0.6800 0.0280 -0.0318 0 0 10 0
0.6780 0.0280 -0.0323 0 0 10 0
0.6900 0.0280 -0.0323 0 0 10 0
0.6720 0.0278 -0.0321 0 0 10 0
0.6880 0.0266 -0.0329 0 0 10 0
0.6860 0.0257 -0.0265 0 0 10 0
0.6840 0.0253 -0.0270 0 0 10 0
0.6840 0.0253 -0.0270 0 0 0 0
0.6660 0.0228 -0.0302 0 0 10 0
0.6760 0.0218 -0.0331 0 0 10 0
0.6540 0.0213 -0.0338 0 0 10 0
0.6900 0.0211 -0.0371 0 0 0 0
0.6980 0.0212 -0.0360 0 0 10 0
0.6640 0.0205 -0.0297 0 0 10 0
0.6740 0.0199 -0.0307 0 0 0 0
0.6820 0.0196 -0.0312 0 0 10 0
0.6960 0.0190 -0.0350 0 0 10 0
0.6780 0.0187 -0.0360 0 0 10 0
0.6800 0.0185 -0.0375 0 0 0 0
0.6760 0.0180 -0.0401 0 0 10 0
0.6720 0.0172 -0.0408 0 0 10 0
0.6660 0.0163 -0.0410 0 0 0 0
0.6760 0.0164 -0.0424 0 0 10 0
0.6840 0.0153 -0.0400 0 0 10 0
0.6760 0.0155 -0.0404 0 0 10 0
0.6740 0.0153 -0.0409 0 0 0 0
0.6700 0.0145 -0.0413 0 0 10 0
0.6740 0.0133 -0.0417 0 0 10 0
0.6600 0.0136 -0.0424 0 0 10 0
0.6800 0.0133 -0.0398 0 0 10 0
0.6800 0.0133 -0.0398 0 0 0 0
0.6660 0.0131 -0.0421 0 0 10 0
0.6740 0.0132 -0.0430 0 0 10 0
0.6720 0.0133 -0.0417 0 0 10 0
0.6620 0.0132 -0.0424 0 0 0 0
0.6740 0.0112 -0.0487 0 0 10 0
0.6720 0.0110 -0.0474 0 0 10 0
0.6900 0.0098 -0.0480 0 0 10 0
0.6880 0.0096 -0.0501 0 0 0 0
0.6980 0.0096 -0.0497 0 0 10 0
0.6820 0.0091 -0.0507 0 0 10 0
0.6820 0.0088 -0.0505 0 0 10 0
0.7000 0.0088 -0.0505 0 0 10 0
0.6960 0.0087 -0.0495 0 0 0 0
0.6820 0.0087 -0.0567 0 0 0 10
0.6680 0.0083 -0.0527 0 0 0 10
0.6880 0.0089 -0.0530 0 0 0 10
0.7120 0.0085 -0.0517 0 0 0 10
0.7120 0.0085 -0.0517 0 0 0 10
0.6920 0.0084 -0.0545 0 0 0 10
0.6960 0.0080 -0.0565 0 0 0 10
0.7140 0.0077 -0.0545 0 0 0 10
0.7140 0.0077 -0.0545 0 0 0 10
0.6920 0.0082 -0.0524 0 0 0 10
0.7100 0.0084 -0.0477 0 0 0 10
0.7100 0.0084 -0.0477 0 0 0 10
0.6920 0.0080 -0.0437 0 0 0 10
0.6980 0.0077 -0.0407 0 0 0 10
0.6620 0.0070 -0.0394 0 0 0 0
0.6980 0.0079 -0.0293 0 0 0 10
0.6760 0.0075 -0.0226 0 0 0 10
0.6860 0.0065 -0.0216 0 0 0 10
0.6860 0.0065 -0.0216 0 0 0 10
0.6860 0.0065 -0.0189 0 0 0 10
0.6860 0.0065 -0.0186 0 0 0 0
0.6740 0.0073 -0.0092 0 0 0 10
0.6860 0.0082 -0.0119 0 0 0 10
0.6880 0.0084 -0.0101 0 0 0 10
0.6880 0.0084 -0.0101 0 0 0 10
0.6880 0.0079 -0.0161 0 0 0 0
0.6860 0.0096 -0.0150 0 0 0 10
0.6920 0.0090 -0.0085 0 0 0 10
0.6860 0.0086 -0.0009 0 0 0 0
0.7160 0.0100 0.0048 0 0 0 10
0.7000 0.0072 0.0048 0 0 0 10
0.6860 0.0084 0.0013 0 0 0 0
0.7040 0.0077 0.0005 0 0 0 10
0.7240 0.0090 -0.0042 0 0 0 0
0.7180 0.0064 0.0243 0 0 0 10
0.7200 0.0074 0.0275 0 0 0 0
0.7160 0.0086 0.0245 0 0 0 10
0.7280 0.0081 0.0209 0 0 0 0
0.7020 0.0087 0.0131 0 0 0 -10
0.7040 0.0070 0.0083 0 0 0 -10
0.7120 0.0073 0.0076 0 0 0 0
0.7140 0.0079 0.0029 0 0 0 -10
0.7120 0.0069 -0.0025 0 0 0 -10
0.6960 0.0072 -0.0052 0 0 0 0
0.7180 0.0082 0.0028 0 0 0 -10
0.7320 0.0085 0.0021 0 0 0 -10
0.7120 0.0089 0.0024 0 0 0 0
0.6960 0.0077 -0.0095 0 0 -10 0
0.7120 0.0079 -0.0075 0 0 0 0
0.7120 0.0080 0.0060 0 0 -10 0
0.7080 0.0077 0.0033 0 0 0 0
0.6980 0.0113 -0.0048 0 0 -10 0
0.7020 0.0112 -0.0033 0 0 -10 0
0.6980 0.0112 -0.0026 0 0 0 0
0.7100 0.0111 -0.0038 0 0 10 0
0.7280 0.0112 -0.0018 0 0 10 0
0.7020 0.0100 -0.0011 0 0 10 0
0.7040 0.0095 -0.0006 0 0 0 0
0.6920 0.0114 -0.0019 0 0 10 0
0.6920 0.0102 0.0002 0 0 10 0
0.6920 0.0102 0.0002 0 0 0 0
0.6940 0.0089 0.0028 0 0 -10 0
0.6880 0.0091 0.0009 0 0 0 0
0.7140 0.0069 -0.0190 0 0 0 10
0.6940 0.0078 -0.0232 0 0 0 0
0.6860 0.0075 -0.0096 0 0 0 -10
0.7040 0.0087 -0.0063 0 0 0 0
0.7120 0.0086 -0.0072 0 0 0 10
0.6900 0.0085 -0.0111 0 0 0 0
0.6860 0.0090 -0.0132 0 0 0 10
0.6820 0.0083 -0.0143 0 0 0 10
0.6820 0.0078 -0.0211 0 0 0 0
0.7040 0.0093 -0.0160 0 0 0 10
0.6800 0.0091 -0.0120 0 0 0 10
0.6800 0.0091 -0.0106 0 0 0 0
0.6780 0.0098 -0.0049 0 0 0 10
0.7060 0.0096 -0.0072 0 0 0 0
0.7020 0.0098 -0.0010 0 0 0 10
0.6900 0.0084 0.0026 0 0 0 0
