0.5540 -0.0091 -0.2349 0 0 0 10
0.5440 -0.0082 -0.2366 0 0 0 10
0.5480 -0.0075 -0.2368 0 0 0 10
0.5700 -0.0077 -0.2371 0 0 0 10
0.5700 -0.0078 -0.2382 0 0 0 10
0.5560 -0.0078 -0.2382 0 0 0 10
0.5900 -0.0070 -0.2369 0 0 0 10
0.5540 -0.0067 -0.2378 0 0 0 0
0.5720 -0.0086 -0.2302 0 0 0 10
0.5420 -0.0066 -0.2246 0 0 0 10
0.5420 -0.0060 -0.2240 0 0 0 10
0.5660 -0.0056 -0.2224 0 0 0 10
0.5580 -0.0055 -0.2233 0 0 0 10
0.5620 -0.0055 -0.2215 0 0 0 0
0.5680 -0.0047 -0.2224 0 0 0 10
0.5460 -0.0055 -0.2188 0 0 0 10
0.5760 -0.0059 -0.2184 0 0 0 10
0.5680 -0.0062 -0.2180 0 0 0 10
0.5560 -0.0061 -0.2188 0 0 0 10
0.5560 -0.0061 -0.2188 0 0 0 10
0.5800 -0.0059 -0.2187 0 0 0 10
0.5640 -0.0054 -0.2177 0 0 0 10
0.5660 -0.0050 -0.2182 0 0 0 10
0.5800 -0.0047 -0.2144 0 0 0 10
0.5800 -0.0047 -0.2144 0 0 0 10
0.5820 -0.0040 -0.2109 0 0 0 10
0.5760 -0.0037 -0.2085 0 0 0 0
0.5720 -0.0048 -0.2010 0 0 0 10
0.5860 -0.0043 -0.1933 0 0 0 10
0.5880 -0.0043 -0.1933 0 0 0 10
0.5880 -0.0043 -0.1933 0 0 0 10
0.5860 -0.0045 -0.1923 0 0 0 10
0.5860 -0.0045 -0.1923 0 0 0 10
0.5980 -0.0044 -0.1919 0 0 0 10
0.5840 -0.0042 -0.1898 0 0 0 10
0.6000 -0.0042 -0.1858 0 0 0 10
0.6000 -0.0042 -0.1858 0 0 0 10
0.6100 -0.0041 -0.1829 0 0 0 10
0.5840 -0.0035 -0.1788 0 0 0 10
0.5920 -0.0028 -0.1765 0 0 0 10
0.5980 -0.0024 -0.1727 0 0 0 10
0.5980 -0.0019 -0.1708 0 0 0 0
0.5800 -0.0024 -0.1567 0 0 0 10
0.6120 -0.0028 -0.1526 0 0 0 10
0.5980 -0.0014 -0.1494 0 0 0 10
0.5940 -0.0019 -0.1496 0 0 0 10
0.6160 -0.0028 -0.1492 0 0 0 10
0.6060 -0.0037 -0.1486 0 0 0 10
0.6100 -0.0032 -0.1472 0 0 0 10
0.6160 -0.0022 -0.1453 0 0 0 10
0.6160 -0.0022 -0.1453 0 0 0 10
0.6180 -0.0025 -0.1419 0 0 0 0
0.6100 -0.0023 -0.1341 0 0 0 10
0.6380 -0.0023 -0.1330 0 0 0 10
0.6400 -0.0023 -0.1330 0 0 0 10
0.6300 -0.0026 -0.1328 0 0 0 10
0.6480 -0.0023 -0.1337 0 0 0 10
0.6260 -0.0024 -0.1339 0 0 0 10
0.6220 -0.0025 -0.1318 0 0 0 10
0.6220 -0.0025 -0.1318 0 0 0 10
0.6220 -0.0023 -0.1289 0 0 0 10
0.6200 -0.0024 -0.1270 0 0 0 10
0.6260 -0.0023 -0.1241 0 0 0 10
0.6300 -0.0023 -0.1222 0 0 0 10
0.6300 -0.0023 -0.1222 0 0 0 10
0.6060 -0.0025 -0.1197 0 0 0 10
0.6100 -0.0024 -0.1184 0 0 0 10
0.6480 -0.0022 -0.1162 0 0 0 10
0.6160 -0.0018 -0.1151 0 0 0 0
0.6160 -0.0014 -0.1043 0 0 0 10
0.6280 -0.0023 -0.1036 0 0 0 10
0.6300 -0.0022 -0.1033 0 0 0 10
0.6260 -0.0017 -0.1040 0 0 0 10
0.6220 -0.0016 -0.1031 0 0 0 10
0.6340 -0.0014 -0.1014 0 0 0 10
0.6340 -0.0014 -0.1014 0 0 0 10
0.6420 -0.0015 -0.1004 0 0 0 10
0.6480 -0.0020 -0.0984 0 0 0 10
0.6400 -0.0027 -0.0966 0 0 0 10
0.6400 -0.0027 -0.0966 0 0 0 10
0.6100 -0.0035 -0.0908 0 0 0 10
0.6320 -0.0035 -0.0884 0 0 0 10
0.6360 -0.0031 -0.0851 0 0 0 10
0.6280 -0.0021 -0.0819 0 0 0 10
0.6320 -0.0019 -0.0788 0 0 0 10
0.6380 -0.0018 -0.0756 0 0 0 10
0.6380 -0.0018 -0.0756 0 0 0 10
0.6360 -0.0019 -0.0710 0 0 0 10
0.6360 -0.0018 -0.0690 0 0 0 10
0.6360 -0.0019 -0.0678 0 0 0 10
0.6360 -0.0019 -0.0678 0 0 0 10
0.6440 -0.0014 -0.0638 0 0 0 10
0.6440 -0.0014 -0.0619 0 0 0 10
0.6240 -0.0014 -0.0619 0 0 0 10
0.6520 -0.0012 -0.0609 0 0 0 10
0.6420 -0.0010 -0.0579 0 0 0 10
0.6660 -0.0012 -0.0557 0 0 0 10
0.6660 -0.0012 -0.0557 0 0 0 10
0.6760 -0.0014 -0.0502 0 0 0 10
0.6760 -0.0014 -0.0502 0 0 0 10
0.6460 -0.0018 -0.0471 0 0 0 10
0.6580 -0.0016 -0.0414 0 0 0 10
0.6700 -0.0016 -0.0399 0 0 0 10
0.6700 -0.0016 -0.0399 0 0 0 10
0.6680 -0.0015 -0.0368 0 0 0 10
0.6780 -0.0016 -0.0363 0 0 0 10
0.6860 -0.0016 -0.0363 0 0 0 10
0.6860 -0.0016 -0.0363 0 0 0 10
0.6460 -0.0016 -0.0302 0 0 0 10
0.6460 -0.0016 -0.0302 0 0 0 10
0.6480 -0.0014 -0.0278 0 0 0 10
0.6460 -0.0003 -0.0262 0 0 0 10
0.6560 0.0005 -0.0242 0 0 0 10
0.6600 0.0009 -0.0198 0 0 0 10
0.6600 0.0009 -0.0175 0 0 0 10
0.6700 0.0004 -0.0155 0 0 0 10
0.6740 -0.0002 -0.0132 0 0 0 10
0.6740 -0.0002 -0.0132 0 0 0 10
0.6560 -0.0000 -0.0101 0 0 0 10
0.6660 0.0002 -0.0110 0 0 0 10
0.6700 0.0005 -0.0094 0 0 0 10
0.6740 0.0003 -0.0116 0 0 0 0
0.6760 -0.0025 -0.0020 0 0 0 10
0.6980 -0.0002 -0.0013 0 0 0 10
0.6740 -0.0004 0.0002 0 0 0 10
0.6740 -0.0004 0.0002 0 0 0 10
0.6820 0.0001 0.0004 0 0 0 0
0.6960 -0.0001 0.0016 0 0 0 10
