0.6040 -0.0014 0.0201 10 0 0 0
0.6040 -0.0011 0.0217 10 0 0 0
0.6020 -0.0007 0.0230 10 0 0 0
0.5900 -0.0012 0.0229 10 0 0 0
0.6180 -0.0012 0.0225 0 0 0 0
0.6080 -0.0009 0.0198 10 0 0 0
0.6080 -0.0017 0.0221 10 0 0 0
0.6080 -0.0017 0.0221 10 0 0 0
0.6100 -0.0017 0.0258 10 0 0 0
0.6100 -0.0017 0.0259 10 0 0 0
0.6120 -0.0017 0.0277 0 0 0 0
0.6060 -0.0016 0.0271 10 0 0 0
0.6020 -0.0015 0.0285 10 0 0 0
0.6100 -0.0010 0.0282 10 0 0 0
0.6040 -0.0009 0.0317 10 0 0 0
0.6040 -0.0009 0.0317 10 0 0 0
0.6040 -0.0012 0.0344 10 0 0 0
0.6040 -0.0012 0.0344 10 0 0 0
0.5880 -0.0012 0.0339 0 0 0 0
0.5880 -0.0017 0.0347 10 0 0 0
0.5860 -0.0012 0.0364 10 0 0 0
0.5860 -0.0012 0.0364 10 0 0 0
0.5880 -0.0008 0.0389 10 0 0 0
0.5860 -0.0010 0.0384 10 0 0 0
0.6220 -0.0012 0.0409 0 0 0 0
0.5920 -0.0011 0.0422 10 0 0 0
0.5940 -0.0009 0.0434 10 0 0 0
0.5940 -0.0007 0.0441 10 0 0 0
0.5920 -0.0008 0.0459 0 0 0 0
0.6120 -0.0003 0.0481 10 0 0 0
0.5960 -0.0009 0.0508 10 0 0 0
0.6080 -0.0010 0.0499 10 0 0 0
0.6220 -0.0010 0.0523 10 0 0 0
0.6220 -0.0010 0.0523 0 0 0 0
0.6120 -0.0012 0.0513 0 0 0 -10
0.6220 -0.0015 0.0521 0 0 0 -10
0.6140 -0.0012 0.0517 0 0 0 0
0.6060 -0.0017 0.0519 0 0 0 0
0.6060 -0.0018 0.0444 0 0 0 0
0.6040 -0.0011 0.0436 0 0 0 -10
0.6260 -0.0014 0.0412 0 0 0 0
0.6060 -0.0001 0.0426 0 0 0 -10
0.6320 -0.0000 0.0442 0 0 0 -10
0.6320 0.0005 0.0452 0 0 0 0
0.6040 0.0006 0.0444 0 0 0 -10
0.6240 -0.0010 0.0419 0 0 0 -10
0.6300 -0.0008 0.0407 0 0 0 0
0.6200 -0.0009 0.0371 0 0 0 0
0.6100 -0.0002 0.0302 0 0 0 -10
0.6360 -0.0003 0.0305 0 0 0 -10
0.6360 -0.0002 0.0281 0 0 0 0
0.6140 -0.0002 0.0276 0 0 0 -10
0.6260 -0.0011 0.0212 0 0 0 -10
0.6220 -0.0014 0.0142 0 0 0 0
0.6120 -0.0024 0.0163 0 0 0 -10
0.6140 -0.0020 0.0173 0 0 0 0
0.6060 -0.0020 0.0224 0 0 0 -10
0.6140 -0.0017 0.0259 0 0 0 0
0.6460 -0.0020 0.0213 0 0 0 0
0.6200 -0.0010 0.0119 0 0 0 0
0.6200 -0.0014 0.0206 0 0 0 -10
0.6200 -0.0008 0.0138 0 0 0 0
0.6400 -0.0000 0.0098 0 0 0 -10
0.6580 -0.0010 0.0075 0 0 0 0
0.6220 -0.0019 -0.0033 10 0 0 0
0.6360 -0.0020 -0.0024 10 0 0 0
0.6280 -0.0023 -0.0063 10 0 0 0
0.6340 -0.0022 -0.0056 10 0 0 0
0.6260 -0.0019 -0.0040 0 0 0 0
0.6140 -0.0023 -0.0029 10 0 0 0
0.6320 -0.0025 -0.0032 10 0 0 0
0.6380 -0.0025 0.0003 10 0 0 0
0.6200 -0.0024 0.0004 10 0 0 0
0.6200 -0.0024 0.0004 0 0 0 0
0.6160 -0.0007 0.0012 10 0 0 0
0.6340 -0.0012 0.0024 10 0 0 0
0.6420 -0.0012 0.0040 10 0 0 0
0.6420 -0.0012 0.0040 10 0 0 0
0.6220 -0.0010 0.0048 0 0 0 0
0.6220 -0.0014 0.0051 10 0 0 0
0.6100 -0.0016 0.0071 10 0 0 0
0.6260 -0.0017 0.0074 10 0 0 0
0.6260 -0.0017 0.0074 0 0 0 0
0.6260 -0.0010 0.0119 10 0 0 0
0.6120 -0.0014 0.0107 10 0 0 0
0.6220 -0.0014 0.0107 10 0 0 0
0.6140 -0.0014 0.0107 0 0 0 0
0.6120 -0.0014 0.0094 10 0 0 0
0.6220 -0.0017 0.0087 10 0 0 0
0.6260 -0.0016 0.0101 10 0 0 0
0.6260 -0.0016 0.0097 0 0 0 0
0.6260 -0.0018 0.0069 10 0 0 0
0.6260 -0.0018 0.0069 10 0 0 0
0.6300 -0.0018 0.0094 10 0 0 0
0.6260 -0.0015 0.0099 0 0 0 0
0.6460 -0.0010 0.0095 10 0 0 0
0.6300 -0.0019 0.0116 10 0 0 0
0.6540 -0.0018 0.0117 10 0 0 0
0.6540 -0.0018 0.0117 0 0 0 0
0.6240 -0.0016 0.0107 10 0 0 0
0.6080 -0.0023 0.0089 10 0 0 0
0.6220 -0.0021 0.0088 10 0 0 0
0.6220 -0.0021 0.0088 10 0 0 0
0.6320 -0.0017 0.0070 0 0 0 0
0.6200 -0.0010 0.0047 10 0 0 0
0.6360 -0.0014 0.0059 10 0 0 0
0.6380 -0.0013 0.0066 10 0 0 0
0.6240 -0.0008 0.0064 0 0 0 0
0.6440 -0.0002 0.0076 10 0 0 0
0.6060 -0.0013 0.0079 10 0 0 0
0.6200 -0.0019 0.0076 10 0 0 0
0.6120 -0.0020 0.0086 0 0 0 0
0.6480 -0.0018 0.0094 10 0 0 0
0.6380 -0.0018 0.0074 0 0 0 0
0.6200 -0.0000 0.0060 10 0 0 0
0.6140 -0.0013 0.0042 10 0 0 0
0.6100 -0.0012 0.0037 10 0 0 0
0.6100 -0.0012 0.0037 0 0 0 0
0.6200 -0.0013 0.0040 10 0 0 0
0.6200 -0.0019 0.0013 10 0 0 0
0.6180 -0.0021 -0.0006 10 0 0 0
0.6180 -0.0021 -0.0006 0 0 0 0
0.6420 -0.0027 0.0035 10 0 0 0
0.6240 -0.0011 0.0075 10 0 0 0
0.6260 -0.0008 0.0075 10 0 0 0
0.6080 -0.0009 0.0091 10 0 0 0
0.6220 -0.0009 0.0091 0 0 0 0
0.6180 -0.0001 0.0093 10 0 0 0
0.6380 -0.0004 0.0080 10 0 0 0
0.6520 -0.0003 0.0074 0 0 0 0
0.6320 0.0004 0.0037 10 0 0 0
0.6260 -0.0000 0.0004 10 0 0 0
0.6260 -0.0000 0.0004 10 0 0 0
0.6260 -0.0000 0.0000 0 0 0 0
0.6180 0.0007 -0.0002 10 0 0 0
0.6000 0.0001 0.0022 10 0 0 0
0.6160 0.0001 0.0024 10 0 0 0
0.6160 0.0001 0.0024 0 0 0 0
0.6140 0.0006 0.0033 10 0 0 0
0.6080 0.0002 0.0041 10 0 0 0
0.6300 -0.0001 0.0038 10 0 0 0
0.6180 0.0002 0.0055 10 0 0 0
0.6180 0.0002 0.0055 0 0 0 0
0.6260 0.0010 0.0045 10 0 0 0
0.6320 -0.0003 0.0051 10 0 0 0
0.6320 -0.0003 0.0051 10 0 0 0
0.6160 0.0004 0.0045 0 0 0 0
0.6120 0.0006 0.0017 10 0 0 0
0.6200 0.0007 0.0027 10 0 0 0
0.6220 0.0007 0.0001 10 0 0 0
0.6180 0.0002 0.0002 0 0 0 0
0.6120 -0.0001 0.0078 10 0 0 0
0.6220 -0.0005 0.0090 10 0 0 0
0.6060 -0.0009 0.0109 10 0 0 0
0.6060 -0.0009 0.0109 10 0 0 0
0.6260 -0.0009 0.0114 0 0 0 0
0.6040 -0.0009 0.0110 10 0 0 0
0.6040 -0.0003 0.0113 10 0 0 0
0.6140 -0.0003 0.0126 10 0 0 0
0.6180 -0.0007 0.0123 10 0 0 0
0.6180 -0.0007 0.0123 0 0 0 0
0.6060 -0.0009 0.0108 10 0 0 0
0.6140 -0.0012 0.0114 10 0 0 0
0.6280 -0.0010 0.0114 10 0 0 0
0.6240 -0.0011 0.0125 10 0 0 0
0.6380 -0.0014 0.0124 0 0 0 0
0.6200 -0.0013 0.0107 10 0 0 0
0.6320 -0.0019 0.0088 10 0 0 0
0.6400 -0.0021 0.0079 10 0 0 0
0.6180 -0.0021 0.0078 0 0 0 0
0.6340 -0.0025 0.0106 10 0 0 0
0.6400 -0.0021 0.0100 10 0 0 0
0.6400 -0.0026 0.0083 10 0 0 0
0.6280 -0.0023 0.0073 10 0 0 0
0.6360 -0.0019 0.0073 0 0 0 0
0.6400 -0.0003 0.0041 10 0 0 0
0.6240 -0.0014 0.0051 10 0 0 0
0.6140 -0.0017 0.0050 10 0 0 0
0.6320 -0.0018 0.0052 0 0 0 0
0.6160 -0.0013 0.0053 10 0 0 0
0.6280 -0.0005 0.0067 10 0 0 0
0.6360 -0.0012 0.0094 0 0 0 0
0.6280 -0.0010 0.0115 10 0 0 0
0.6120 -0.0005 0.0125 10 0 0 0
0.6260 -0.0002 0.0130 10 0 0 0
0.6300 -0.0002 0.0126 10 0 0 0
0.6300 -0.0002 0.0126 0 0 0 0
0.6560 -0.0014 0.0074 10 0 0 0
0.6380 -0.0018 0.0071 10 0 0 0
0.6240 -0.0030 0.0026 10 0 0 0
0.6360 -0.0030 0.0030 0 0 0 0
0.6280 -0.0013 0.0029 10 0 0 0
0.6320 -0.0016 0.0056 10 0 0 0
0.6400 -0.0016 0.0053 10 0 0 0
0.6420 -0.0021 0.0053 10 0 0 0
0.6440 -0.0022 0.0051 10 0 0 0
0.6440 -0.0022 0.0051 0 0 0 0
0.6440 -0.0021 0.0075 10 0 0 0
0.6300 -0.0021 0.0047 10 0 0 0
0.6420 -0.0028 0.0047 10 0 0 0
0.6420 -0.0028 0.0047 10 0 0 0
0.6380 -0.0029 0.0042 0 0 0 0
0.6340 -0.0013 0.0051 10 0 0 0
0.6200 -0.0018 0.0062 10 0 0 0
0.6160 -0.0019 0.0047 0 0 0 0
0.6460 -0.0010 0.0051 10 0 0 0
0.6340 -0.0014 -0.0018 10 0 0 0
0.6320 -0.0004 -0.0044 0 0 0 0
0.6160 -0.0017 -0.0030 10 0 0 0
0.6240 -0.0007 0.0023 10 0 0 0
0.6240 -0.0007 0.0023 10 0 0 0
0.6260 -0.0009 0.0030 10 0 0 0
0.6220 -0.0014 0.0018 0 0 0 0
0.6420 -0.0025 0.0016 10 0 0 0
0.6380 -0.0021 0.0008 10 0 0 0
0.6420 -0.0012 0.0028 10 0 0 0
0.6360 -0.0006 0.0042 0 0 0 0
0.6400 -0.0003 0.0055 10 0 0 0
0.6480 -0.0003 0.0053 10 0 0 0
0.6540 -0.0002 0.0072 10 0 0 0
0.6420 -0.0003 0.0077 0 0 0 0
0.6520 -0.0007 0.0064 10 0 0 0
0.6600 -0.0014 0.0048 10 0 0 0
0.6520 -0.0015 0.0041 0 0 0 0
0.6540 -0.0012 0.0068 10 0 0 0
0.6560 -0.0011 0.0083 10 0 0 0
0.6640 -0.0020 0.0087 10 0 0 0
0.6740 -0.0023 0.0065 10 0 0 0
0.6740 -0.0023 0.0065 0 0 0 0
0.6540 -0.0014 0.0041 10 0 0 0
0.6700 -0.0017 0.0036 10 0 0 0
0.6700 -0.0017 0.0036 10 0 0 0
0.6640 -0.0017 0.0036 0 0 0 0
0.6800 -0.0014 0.0033 10 0 0 0
0.6760 -0.0017 0.0038 10 0 0 0
0.6760 -0.0017 0.0038 10 0 0 0
0.6940 -0.0017 0.0038 10 0 0 0
0.6740 -0.0014 0.0039 0 0 0 0
0.6700 -0.0007 0.0013 10 0 0 0
0.6800 -0.0007 0.0008 10 0 0 0
0.6960 -0.0010 0.0000 10 0 0 0
0.6880 -0.0008 0.0017 0 0 0 0
